ply
        format ascii 1.0
        element vertex 7057
        property float x
        property float y
        property float z
        property uchar red
        property uchar green
        property uchar blue
        end_header
-2.010981 -0.957852 4.750915 130 141 79
-2.430345 0.077756 3.763019 44 63 78
-2.371412 -0.010783 3.843060 141 166 162
-2.284167 -0.074060 3.860951 147 172 168
-1.291508 -1.989332 5.801677 24 90 149
-1.662666 -1.194142 4.996580 126 134 74
-2.253821 0.220164 3.620289 144 169 165
-2.420264 0.846617 3.037222 31 51 62
-0.626814 -1.621930 5.465259 53 55 89
-0.587428 -1.584355 5.395158 56 61 94
-0.564271 -1.632853 5.462682 55 60 91
-0.540284 -1.589186 5.401388 49 54 85
-0.273300 -1.308350 5.156772 56 48 79
-0.006175 -1.542228 5.383471 148 172 164
0.090190 -1.600162 5.437931 104 66 118
0.381680 -1.578178 5.396121 103 67 119
-1.033218 0.986026 2.855864 33 134 102
-0.973491 0.958943 2.896386 48 70 141
-1.018621 1.089630 2.760151 39 141 106
-0.972095 1.006896 2.850440 30 127 93
-0.900096 1.028359 2.769559 23 123 88
-0.818738 0.877514 2.977195 37 41 143
-0.798520 1.276752 2.582458 135 170 160
-0.850817 1.375453 2.508930 145 173 167
0.786539 -1.336099 5.171257 101 140 138
-0.795020 1.405571 2.477884 47 84 58
-0.654444 1.239919 2.622097 43 64 132
0.607751 -0.266361 3.301241 114 113 109
-0.482334 1.202097 2.671763 133 161 162
0.650518 -0.670750 4.498352 156 182 169
-0.185178 0.804470 2.970460 41 57 146
0.675199 -0.670619 4.517456 150 138 72
-0.357114 1.169590 2.716390 26 38 132
0.100276 0.454920 3.335464 144 168 168
0.350183 0.203925 3.367795 106 119 127
-0.207962 1.048597 2.802010 32 73 46
-0.134237 1.063629 2.756865 48 86 56
0.943972 -0.703666 4.547373 146 173 163
1.117624 -0.688133 4.532391 12 67 48
1.062560 -0.594395 4.475202 31 94 74
1.173478 -0.703032 4.523958 31 87 66
0.834510 -0.121125 3.933099 90 116 110
1.064638 -0.508266 4.361652 17 76 72
1.098925 -0.488133 4.347479 24 81 73
1.163977 -0.582958 4.422594 134 165 158
1.057908 -0.370426 4.204494 47 86 84
1.136198 -0.489960 4.329749 11 71 47
1.254785 -0.672811 4.518571 147 167 154
1.038910 -0.284751 4.139887 150 176 170
1.170850 -0.499146 4.344318 15 71 50
1.458050 -0.859349 4.702662 147 170 166
1.233900 -0.450476 4.298124 16 77 73
-0.008955 1.603117 2.256981 19 48 53
1.264422 -0.443127 4.296293 12 71 51
1.297320 -0.476893 4.334132 23 81 56
1.296657 -0.455678 4.305532 22 80 56
1.413699 -0.633104 4.485053 112 96 80
0.069097 1.574551 2.298098 23 52 61
1.755211 -1.173005 5.001354 19 35 51
1.447156 -0.640526 4.499011 108 91 58
0.157752 1.472411 2.404939 20 44 56
1.555301 -0.760741 4.609760 16 74 63
1.541309 -0.610880 4.463341 19 75 64
1.592327 -0.658035 4.513527 2 54 36
1.606283 -0.668930 4.478483 21 79 55
1.470185 -0.442097 4.289655 34 116 158
1.484055 -0.462239 4.307586 136 175 173
1.675929 -0.751303 4.610045 142 170 164
0.238461 1.615332 2.219533 12 40 51
1.640252 -0.658698 4.500776 143 178 158
1.709592 -0.749199 4.593073 138 170 165
1.770163 -0.803201 4.654684 18 70 47
1.728776 -0.701076 4.534041 141 173 168
0.788717 0.858843 2.990588 71 149 108
1.654774 -0.485802 4.320946 9 105 145
0.827974 0.888188 2.960306 8 37 41
1.258529 0.216798 3.641423 130 175 156
0.975064 0.919243 2.927437 14 40 52
0.869885 1.123697 2.723255 95 163 152
0.902593 1.084165 2.750990 29 120 75
0.846666 1.198343 2.669293 14 55 64
0.892990 1.130744 2.723029 24 51 61
0.682851 1.520978 2.319905 19 61 68
1.268603 0.621009 3.245226 32 121 71
0.725947 1.499533 2.329513 100 169 159
0.734201 1.528175 2.338404 26 55 62
0.943017 1.405057 2.445946 24 50 62
1.075475 1.206430 2.651060 114 164 162
1.664063 0.346082 3.509959 137 174 158
1.102448 1.233510 2.618695 100 162 150
1.016053 1.396650 2.426100 15 39 51
1.820428 0.253817 3.594361 30 118 64
-3.213926 -1.825620 5.601365 7 20 36
-4.052421 0.897749 2.877703 93 73 168
-3.407507 -0.531752 4.317544 83 66 153
-3.699557 0.154203 3.649137 60 107 121
-3.365906 -0.382701 4.193994 26 92 163
-2.341273 -2.279583 6.053617 107 86 148
-1.671206 -1.261965 5.073138 130 139 72
-2.439604 0.785127 3.088099 16 36 47
-0.575435 -1.621134 5.460669 45 53 83
-0.371771 -1.310347 5.142358 53 47 78
-0.261133 -1.299825 5.123759 52 44 75
0.575030 -0.304410 3.318222 135 136 126
0.681455 -0.940861 4.773430 53 116 167
0.604479 -0.261446 3.304422 71 70 66
0.971895 -0.941740 4.778367 34 95 81
0.837803 -0.682428 4.526927 146 133 59
0.871112 -0.655653 4.503015 146 170 160
0.933294 -0.699011 4.546360 142 169 160
1.037114 -0.864541 4.708403 149 173 165
1.029763 -0.550962 4.447056 21 83 77
1.155331 -0.578210 4.419815 147 176 167
1.593032 -0.810281 4.669487 30 85 66
1.595988 -0.658804 4.507225 20 72 54
1.610502 -0.575745 4.430878 10 62 45
1.551078 -0.465657 4.313727 139 173 167
1.673307 -0.660641 4.482944 145 169 161
1.715134 -0.584079 4.423939 14 65 45
0.902855 0.869208 2.947237 100 170 157
0.926369 1.037253 2.812459 11 40 45
1.660464 0.417590 3.472757 23 111 51
-3.782403 -0.033696 3.816042 38 66 66
-2.691045 0.114697 3.699075 47 66 79
-2.543275 -0.051668 3.876936 152 178 172
-2.632182 0.059185 3.822218 37 57 68
-2.372299 -0.018271 3.841481 143 168 164
0.954703 -0.777111 4.621490 22 76 63
0.084318 1.570939 2.346087 27 55 62
0.685460 0.878426 2.928472 33 59 66
0.972092 0.955052 2.861275 5 57 47
1.334384 0.473415 3.390727 133 166 152
-3.019818 0.415124 3.268163 36 57 65
-2.842158 -0.066668 3.892833 49 68 81
-2.148437 0.110619 3.635947 57 76 91
-0.688802 -1.643539 5.445473 133 128 160
-1.746655 0.502608 3.310057 117 117 165
-1.296251 0.697260 3.168872 82 133 149
0.110784 -1.613272 5.439935 108 67 124
-0.711373 1.225322 2.643133 153 183 178
-0.743175 1.276940 2.617830 135 165 160
0.685776 -0.948200 4.783916 16 115 167
-0.575413 1.312835 2.556487 134 165 166
0.231847 0.360608 3.319165 40 81 136
0.867154 -0.736413 4.559974 143 171 165
0.491859 0.246445 3.282391 8 9 7
1.009367 -0.599033 4.451508 153 182 173
1.179991 -0.855685 4.625423 19 74 55
1.157726 -0.717002 4.543640 35 90 71
1.179257 -0.655096 4.522842 141 170 161
1.144099 -0.570075 4.419495 136 165 156
1.172595 -0.499662 4.339364 22 78 57
1.570206 -0.770007 4.618576 37 94 73
1.653411 -0.818064 4.675791 18 74 53
0.453056 1.322558 2.520562 26 55 64
1.125749 0.241129 3.617822 33 131 85
1.796580 -0.784036 4.614722 25 79 56
0.826688 1.226308 2.710877 13 52 61
0.981160 1.011569 2.830285 4 41 37
0.873282 1.411683 2.443060 28 56 67
-2.558029 -1.218251 4.965582 133 163 158
-2.615625 -0.948385 4.771437 141 168 164
-2.554564 -0.000754 3.766452 32 49 62
-1.967451 -1.133285 4.884702 119 134 66
-1.488281 -1.918223 5.642159 99 150 190
-0.649771 -1.523388 5.397213 136 129 162
-0.229543 -1.759998 5.529940 135 165 160
0.135686 -1.631839 5.451147 84 43 100
0.370545 -1.601404 5.407098 112 71 128
-0.830331 1.337977 2.562995 29 70 39
0.961035 -0.751622 4.594328 20 78 60
1.131767 -0.553525 4.399051 141 170 161
1.670329 -0.570669 4.554475 2 52 34
0.224146 0.234891 3.501332 13 38 82
1.592453 -0.621492 4.466999 15 71 50
1.168211 0.238987 3.637568 40 138 86
0.864959 0.955424 2.960160 106 176 163
0.413338 0.192101 3.349470 145 144 140
-4.257498 -1.384580 4.771180 125 127 127
-3.673763 -0.384154 3.526671 111 115 116
-4.925957 2.564719 1.368770 128 123 154
-3.190161 0.453599 3.380468 44 60 76
-3.141984 0.431299 3.392607 72 92 97
-2.893337 -0.791712 4.585813 77 58 113
-2.956902 0.542885 3.293647 112 129 126
-2.593818 -2.211303 5.954056 91 52 120
-2.411639 -2.219803 5.977596 69 38 105
-2.651582 0.079836 3.731999 36 52 68
-2.907386 2.521577 1.370100 64 89 99
-2.287655 0.203112 3.617481 39 56 69
-2.239789 -0.077947 3.879917 163 177 175
-2.123957 0.635276 3.204137 92 109 106
-2.099976 0.602112 3.260534 94 117 113
-1.679989 -0.555881 4.357861 80 96 95
-0.605500 0.915259 2.961786 53 47 166
-0.236237 1.099613 2.769422 67 98 77
-0.298461 2.018527 1.867866 32 75 78
0.414752 -0.492537 4.323243 57 57 27
0.450270 -0.554844 4.380667 51 53 24
0.454284 -0.542207 4.372444 146 152 127
0.353869 1.913519 1.932872 81 102 104
0.371068 1.915112 1.935061 47 72 76
0.653081 1.895085 1.951467 25 56 71
0.871026 1.116892 2.743963 22 56 69
0.895571 1.028004 2.830856 12 53 62
0.891555 1.123377 2.725564 25 51 67
0.959813 1.177497 2.685931 20 56 64
1.069749 1.748667 2.090897 37 66 70
1.538788 -0.435772 4.288378 37 110 162
1.642350 -0.567386 4.416184 20 72 55
1.534393 1.040985 2.807657 29 56 70
-4.226635 -1.411858 4.778463 1 3 4
-3.699202 -0.220232 3.370338 137 139 139
-4.922172 2.564867 1.370622 128 123 154
-4.122651 -0.474036 4.254477 128 145 132
-3.894463 2.198999 1.734454 28 34 47
-3.684361 2.030090 1.747419 24 30 43
-3.882380 2.139948 1.793267 36 42 55
-3.812124 2.093767 1.810570 24 31 46
-3.785955 2.243499 1.690301 157 160 168
-3.655436 2.207092 1.704677 23 36 50
-3.241379 -0.542877 4.317425 124 126 156
-3.148545 -0.527975 4.306518 133 132 166
-3.047961 -0.515514 4.293210 131 129 159
-3.008469 0.394065 3.423521 50 66 82
-2.868165 -0.856065 4.657086 47 46 90
-2.989007 0.644509 3.176277 56 75 82
-2.932912 0.312779 3.514322 50 69 82
-2.792488 -0.605723 4.405901 65 52 98
-2.807649 -0.041906 3.841214 45 62 71
-2.752025 0.450267 3.367916 39 56 69
-2.703984 0.120372 3.686203 60 78 89
-2.557506 0.470088 3.338857 35 60 70
-2.445468 0.570403 3.261325 53 69 81
-2.468565 0.779182 3.066689 152 173 171
-2.340086 -0.011258 3.821764 174 185 183
-2.268275 0.221246 3.610707 169 183 182
-2.258276 0.237077 3.592898 104 118 116
-0.863671 1.381037 2.514710 156 173 169
-0.794880 1.416847 2.475746 50 84 60
-0.785465 1.388876 2.498563 42 83 52
-0.631135 1.337767 2.549926 34 73 52
-0.633361 1.380963 2.504044 37 78 47
-0.604594 1.366549 2.511386 146 169 155
-0.589278 1.338605 2.520611 51 86 60
-0.469051 1.194143 2.672331 151 167 174
-0.287552 0.584394 3.250679 12 97 167
-0.354329 1.169099 2.713671 40 41 161
-0.429748 2.024015 1.861016 169 188 185
-0.420283 2.038327 1.834914 160 179 176
-0.419306 1.970797 1.921078 59 84 86
-0.416579 1.951767 1.942477 61 86 90
-0.406941 1.927075 1.964489 66 91 95
-0.390197 2.025663 1.852825 153 179 179
-0.363010 1.866685 2.029213 48 77 86
-0.335084 1.840786 2.054522 150 174 174
-0.164613 1.117778 2.742497 39 73 43
-0.288964 2.046434 1.817846 127 178 170
-0.290676 1.971149 1.914725 36 74 79
-0.289987 2.024048 1.853612 41 77 85
0.425482 -0.513219 4.335629 54 50 15
0.419980 -0.475904 4.313128 148 160 148
0.433438 -0.497400 4.328197 164 165 126
0.404966 0.270236 3.372258 108 105 91
0.187151 1.643463 2.228673 118 176 171
0.211132 1.616367 2.261630 115 170 167
0.216814 1.622318 2.250234 28 60 73
0.881397 -0.478335 3.644722 182 184 178
0.227597 1.629516 2.240680 27 58 73
0.245572 1.852532 2.009717 161 182 179
0.462420 0.657600 3.176721 18 127 179
0.716743 -0.810708 4.644849 153 179 191
0.265728 1.855349 2.005851 35 62 72
0.341569 1.901380 1.950108 165 184 181
0.366081 1.908596 1.941989 149 168 173
0.373305 1.899381 1.953007 41 66 70
0.371725 1.922065 1.925406 155 171 170
0.408832 1.900445 1.945082 30 56 73
0.507634 1.342509 2.520908 33 59 71
0.853965 -0.579811 4.412442 157 144 88
0.427535 1.903632 1.948612 116 170 165
0.526658 1.322762 2.542455 25 56 59
0.571731 1.222212 2.626958 158 179 177
0.556415 1.282244 2.587824 41 67 83
0.570192 1.256395 2.607888 42 71 80
0.955340 -0.868641 4.702351 29 88 90
0.983176 -0.866131 4.701855 34 93 79
0.953932 -0.705061 4.546818 154 176 174
0.686286 0.835675 3.011777 29 58 72
1.003065 -0.636214 4.469467 36 92 79
1.079559 -0.964290 4.807705 29 89 71
0.668485 1.513278 2.343039 37 88 90
0.803089 0.843714 3.006437 28 61 64
0.853362 0.867610 2.983487 41 123 70
0.746521 1.515160 2.348017 36 67 76
0.857389 1.069580 2.769225 26 58 71
1.137910 -0.484938 4.329049 28 90 74
0.780886 1.485387 2.380009 30 64 70
0.741363 1.812082 2.021035 33 89 84
0.896874 0.878531 2.989500 28 55 65
1.162433 -0.582251 4.438817 149 169 164
0.873745 1.113528 2.742119 26 58 71
0.755086 1.830539 2.011667 34 77 86
0.768321 1.765184 2.077087 39 73 79
0.888972 1.128840 2.727803 21 50 64
0.780539 1.841677 1.992366 38 80 85
0.784261 1.848746 1.981481 114 163 161
0.926960 1.038778 2.812137 21 54 57
1.215536 -0.564386 4.415758 27 92 66
0.795073 1.852118 1.980189 135 189 182
0.929147 1.083212 2.770710 10 54 55
1.250382 -0.653327 4.487992 120 103 84
0.799756 1.848729 1.990641 17 66 64
0.957581 0.963545 2.881736 18 51 60
0.818859 1.776001 2.069456 28 59 62
0.929139 1.153555 2.704294 36 62 78
0.960941 1.037144 2.825114 15 54 52
0.985506 0.964562 2.865578 12 50 50
1.239570 -0.462345 4.315139 43 102 87
0.979001 1.018814 2.835505 22 66 59
1.263089 -0.513674 4.355992 27 82 87
1.270114 -0.536469 4.380996 25 88 68
0.857601 1.760109 2.081782 0 42 33
1.024701 0.874650 2.964586 22 45 61
1.294761 -0.568212 4.414729 39 98 77
1.280701 -0.441772 4.283543 37 95 77
0.939759 1.410296 2.450384 27 59 72
1.328846 -0.563628 4.414239 26 86 62
0.933879 1.784745 2.057681 17 51 51
1.108037 0.921284 2.946329 161 179 178
1.098730 1.232400 2.623625 118 167 165
1.105200 1.247487 2.604138 16 56 68
1.107848 1.445724 2.402039 28 57 72
1.266935 0.607586 3.242445 36 125 85
1.126025 1.493003 2.363518 23 50 60
1.521098 -0.507061 4.360995 23 130 164
1.597928 -0.665858 4.518226 37 97 73
1.581324 -0.383796 4.257840 32 135 162
1.591434 -0.413637 4.270451 31 138 165
-3.661493 -0.400644 3.522669 111 120 123
-3.507484 -0.738811 4.501459 36 41 66
-3.571077 0.219015 3.596488 89 132 141
-2.998139 -0.812763 4.595830 79 60 115
-2.913610 -0.819149 4.591880 149 130 185
-2.846258 -0.075298 3.864894 54 71 84
-2.421261 0.771231 3.079538 50 66 83
-2.049874 0.382432 3.435285 114 131 128
-0.757269 1.330861 2.567630 151 170 161
-0.309428 -1.215026 5.042778 168 171 175
0.476147 -0.624894 4.456220 170 185 171
0.478047 -0.564349 4.387530 161 173 161
0.477890 -0.524430 4.368156 180 190 174
0.474024 0.259537 3.348514 9 10 8
0.924636 -0.545765 3.730482 199 196 188
0.686201 -0.692977 4.524783 173 183 170
0.668886 -0.560998 4.392434 167 145 73
0.762522 -0.826588 4.665314 155 174 187
0.332032 1.919038 1.949765 161 178 175
0.401584 1.889059 1.955694 117 174 165
0.855903 -0.581852 4.413468 156 140 81
0.952395 -0.705215 4.543724 162 177 173
0.669373 1.512908 2.343239 33 81 85
1.125684 -0.773420 4.614796 25 82 61
1.120729 -0.687922 4.524505 28 80 63
0.851884 0.853555 3.010520 156 177 174
0.742748 1.767540 2.085397 24 73 71
1.168665 -0.497238 4.344930 20 77 56
1.199335 -0.519367 4.368488 23 83 59
0.972947 0.961360 2.852285 43 134 95
1.228597 -0.520163 4.375406 164 180 173
0.903324 1.417318 2.450665 35 64 79
1.279700 -0.377675 4.217844 116 112 147
1.292019 -0.453090 4.309940 33 92 72
0.931783 1.750416 2.094192 8 68 38
0.932591 1.785597 2.057466 21 57 57
1.118999 1.229546 2.632559 26 64 76
1.135969 1.447195 2.349171 28 56 67
1.545737 -0.777559 4.644362 28 85 70
1.535570 -0.639082 4.496580 25 82 67
1.265936 0.925919 2.923584 29 52 67
1.540140 -0.437730 4.289577 23 109 169
1.400281 0.505111 3.343067 26 120 56
-4.908949 2.780790 1.176567 151 161 168
-2.105105 0.683764 3.149333 35 56 71
-0.367704 0.840687 3.018681 153 178 182
0.927217 -0.732247 4.568366 36 97 99
-4.185499 0.926392 2.919631 113 84 177
-3.717690 0.090827 3.703921 157 176 173
-3.361413 -1.978444 5.726961 131 157 171
-3.640017 1.903474 2.024070 161 176 178
-2.908834 -0.818865 4.591109 150 131 186
-2.612589 -0.120065 3.916441 62 78 94
-2.561574 0.053789 3.776852 43 59 75
-2.529498 -0.014549 3.823197 63 79 95
-2.512745 0.808850 3.068846 159 177 176
-2.349038 0.119819 3.687028 165 179 177
-2.256748 -0.046817 3.883303 52 68 84
-1.102780 1.100231 2.786126 166 185 182
-1.027128 1.049071 2.818215 30 114 79
-0.546803 -1.256267 5.077343 155 171 170
-0.642708 0.897909 2.955072 43 42 162
-0.747910 1.769061 2.136645 166 177 175
-0.644329 1.187030 2.686941 51 52 166
-0.433290 0.845271 2.996662 166 180 186
-0.493608 1.210595 2.673610 152 170 169
-0.302995 0.984977 2.872910 161 178 181
-0.233101 1.113571 2.756327 161 180 177
-0.175576 1.115853 2.740690 48 86 58
-0.018959 1.086754 2.760561 71 124 134
0.061343 1.585346 2.303032 34 61 75
0.469983 0.260242 3.343057 8 9 7
0.353129 0.666636 3.194954 166 191 195
0.651004 -0.636581 4.477013 152 136 70
0.720060 -0.807321 4.656409 157 178 180
0.841142 -0.682022 4.525105 164 142 70
0.885610 -0.856810 4.687316 40 80 145
0.828027 -0.094578 3.938647 137 116 48
0.688751 0.912962 2.926637 142 176 170
1.045937 -0.836279 4.680520 161 179 178
0.665835 1.518632 2.344747 30 78 82
0.818160 0.881908 2.956289 38 70 75
1.024333 -0.281990 4.117974 63 95 94
1.090774 -0.667325 4.521228 151 172 164
0.824409 0.892415 2.962468 16 52 58
1.151392 -0.761325 4.597188 154 174 162
1.154613 -0.798617 4.650637 161 175 164
1.118135 -0.581930 4.434726 155 176 168
0.901585 1.123500 2.714772 53 82 96
0.818138 1.772405 2.077906 42 71 76
1.242588 -0.566020 4.417879 158 176 169
1.248412 -0.527859 4.394446 24 81 82
1.048627 0.904108 2.968212 162 179 176
1.381547 -0.653400 4.505500 133 113 96
1.501626 -0.837034 4.693849 137 109 75
1.490007 -0.722104 4.569061 130 108 73
1.127215 1.488171 2.360413 24 53 62
1.517292 -0.433712 4.286751 158 178 179
1.267131 1.351502 2.485321 27 56 70
-4.095497 1.802858 2.120461 110 80 175
-2.887787 -1.493238 5.254241 155 173 174
-3.091998 0.656357 3.190760 52 68 84
-2.327728 0.192957 3.705572 40 57 70
-2.003107 -0.969440 4.752214 148 150 91
-1.041473 0.961112 2.893773 163 184 182
-0.698132 0.881931 2.964251 51 49 168
0.883077 -0.861877 4.694860 52 94 159
0.726795 0.891343 2.953284 19 61 44
1.130195 -0.620276 4.450927 37 99 81
1.238187 -0.323419 4.157307 14 114 169
1.384875 -0.646247 4.505560 153 119 90
1.459043 -0.650044 4.474082 135 101 71
1.520341 -0.457669 4.299467 26 123 179
-4.096856 -0.549400 4.277438 77 50 16
-0.800949 -1.562690 5.407869 53 52 91
1.223904 -0.562272 4.370249 41 103 81
1.025312 0.896335 2.921416 122 180 169
-3.724243 -1.796773 5.519401 7 34 61
-3.699406 -2.004216 5.777847 19 106 162
-3.669470 -1.458742 5.227694 49 69 70
-3.618636 -1.711441 5.498651 149 166 163
-3.337071 -1.209131 4.943443 111 80 173
-3.149335 -1.839246 5.575491 15 27 51
-3.544372 1.129173 2.794112 115 91 179
-2.539868 0.099160 3.725661 168 183 179
-2.705147 2.225541 1.808470 60 151 112
-2.542577 2.029981 1.918790 65 153 117
-2.374007 1.189385 2.718196 105 134 178
-2.402983 2.111713 1.803786 157 181 173
-1.049359 0.956016 2.893182 167 185 184
-0.409559 1.228929 2.649511 67 91 157
-0.338223 1.190961 2.684369 158 179 177
0.045379 1.610702 2.314138 83 112 119
0.497080 1.363343 2.528802 30 58 69
0.417998 1.446158 2.752691 32 58 70
0.508676 1.317038 2.712573 45 70 80
0.607052 1.352357 2.509722 32 61 75
0.757720 0.869865 3.003779 7 41 41
0.995825 -0.257473 4.132210 59 91 90
1.175757 -0.455194 4.313732 164 181 177
1.243266 -0.497299 4.328722 164 181 177
1.330695 -0.561731 4.410732 27 85 61
1.099678 1.449682 2.393299 25 51 65
1.337367 0.274302 3.515296 164 183 174
-0.015830 -1.232109 5.097054 163 180 177
1.029344 -0.369069 4.218403 46 80 80
1.162194 0.103526 3.738504 33 136 79
0.957552 0.910224 2.958451 47 58 72
0.778570 -0.750480 4.588126 34 30 149
0.778352 -0.922256 4.750620 24 51 138
0.984644 -0.637263 4.473252 46 91 88
1.019705 -0.634754 4.468628 70 92 80
1.086990 -0.956314 4.787495 6 50 44
1.154976 -0.733023 4.569286 75 124 110
1.329397 -0.283380 4.138270 70 25 118
1.337270 -0.330947 4.184024 93 43 131
1.329806 -0.377928 4.230504 95 64 115
1.346400 -0.377884 4.230229 75 47 116
1.356509 -0.381633 4.235871 93 74 113
1.364901 -0.404202 4.256477 94 68 114
1.404010 -0.306337 4.161253 85 44 119
1.373495 -0.426262 4.276769 99 73 126
1.397553 -0.406981 4.258439 132 115 149
1.445565 -0.294925 4.148576 191 182 202
1.436068 -0.381012 4.232271 83 54 110
1.461425 -0.361293 4.212612 108 78 131
1.472162 -0.365151 4.218027 77 38 124
1.557209 -0.612068 4.458009 0 32 24
-4.486351 0.269252 2.803823 46 40 51
-4.321346 -0.090032 3.055729 112 107 116
-4.183499 -0.868348 3.627618 107 103 115
-4.165773 -0.841604 3.599688 102 99 114
-4.433783 0.161312 2.920164 131 126 135
-4.330701 -0.083480 3.086485 38 33 42
-4.185815 -0.942513 3.737129 123 118 127
-4.178496 -0.842346 3.655884 115 109 120
-4.367523 0.245426 2.977400 43 39 45
-4.510519 1.237609 2.254890 75 66 76
-3.692879 -0.479794 3.239876 123 120 129
-3.721772 -0.574499 3.353338 104 103 113
-3.741489 -0.597417 3.379221 98 96 108
-4.123003 -0.980796 3.923504 129 122 129
-4.091483 -1.239391 4.129854 42 36 41
-4.343388 0.353906 3.083410 134 132 132
-3.718598 -0.502706 3.442084 40 39 48
-4.075846 -0.572785 3.755966 10 8 8
-4.049297 -0.515112 3.707564 4 3 5
-4.253863 1.581694 2.241265 157 154 170
-4.211309 1.635808 2.203201 167 164 180
-3.724041 -0.188213 3.369417 9 9 9
-3.770918 -0.399072 3.574723 113 114 118
-3.701535 -0.219915 3.393605 7 7 7
-3.690876 -0.353308 3.529026 8 7 9
-4.245217 0.389957 3.424226 169 171 171
-3.794260 1.711946 2.126842 177 174 189
-3.635517 2.176233 1.677269 169 168 172
-4.190707 0.338787 3.470599 101 105 106
-3.673331 1.347834 2.493930 171 161 197
-4.134971 -0.483365 4.288406 160 167 160
-2.912165 2.591559 1.283314 81 81 99
-2.807366 2.607136 1.268784 66 78 84
-2.802938 2.570827 1.298550 71 82 90
-2.774972 2.485506 1.369571 63 72 85
-3.115468 0.474602 3.361113 167 170 175
-3.021434 0.594062 3.232272 170 173 177
-3.028975 0.454537 3.380965 64 72 85
-2.930015 0.501012 3.321085 65 70 79
-2.625737 0.394053 3.433988 175 180 179
-2.883073 -0.588504 4.423103 168 136 190
-2.374193 0.661429 3.170080 54 59 58
-2.611994 -0.095274 3.933735 163 167 168
-2.535087 0.057389 3.769742 42 48 67
-2.258751 0.452504 3.389505 47 53 76
-2.266135 0.238700 3.595575 55 60 59
-2.094055 0.679597 3.150146 43 49 68
-2.305172 -0.051521 3.880726 184 184 184
-2.137797 0.072558 3.772866 51 54 58
-1.835932 -0.508054 4.356917 84 89 88
-0.804241 1.367528 2.494379 66 83 69
-0.751167 1.282053 2.579258 53 82 57
-0.671412 1.326417 2.539758 75 95 83
-0.666199 1.280562 2.575822 55 60 153
-0.492670 1.182898 2.687263 38 13 157
-0.443130 1.189994 2.663188 74 86 150
-0.009225 1.761895 2.102983 25 40 49
0.110929 1.529956 2.338977 49 59 69
0.594363 1.288005 2.508221 140 179 177
0.379928 0.661982 3.194398 26 127 179
0.711684 1.526883 2.338790 133 179 173
0.652453 0.932323 2.924005 33 45 57
0.647949 0.895919 2.960631 40 48 65
0.655366 0.907446 2.947899 38 48 66
0.673485 0.894211 2.963253 75 156 111
0.678311 0.912317 2.952305 55 66 70
0.991477 1.901023 1.946150 30 45 48
0.753171 0.853717 2.997803 51 138 80
0.754754 0.841932 3.020741 179 184 182
0.766100 0.844015 3.011913 50 58 75
0.449098 -0.552340 4.384979 60 47 21
0.941570 1.159137 2.707683 137 173 173
0.918345 1.053856 2.810089 4 38 31
0.929201 1.063882 2.793153 31 51 56
0.943326 1.040389 2.828046 57 132 104
0.956233 0.979858 2.872541 44 133 100
0.927028 0.886937 2.976380 29 45 62
0.952099 0.922996 2.934231 125 173 167
0.982528 0.905112 2.953938 21 34 50
0.254518 -1.833661 5.610169 72 47 137
1.027263 0.914445 2.946583 133 173 171
1.027572 0.899415 2.959094 37 48 68
0.635537 -0.557074 4.397274 180 140 81
1.052472 0.903746 2.957226 175 182 191
0.637954 -0.642995 4.480372 173 147 93
0.659748 -0.567033 4.408004 165 132 69
0.848398 -0.108101 3.961008 138 98 39
1.218128 0.926129 2.935547 168 177 181
1.252486 0.925539 2.934825 176 181 184
0.533465 -1.795872 5.587980 171 164 197
1.265034 0.632131 3.239548 50 125 93
0.994515 -0.655192 4.494044 75 125 113
1.024096 -0.793802 4.625000 169 180 172
1.097434 -0.574966 4.422268 171 178 171
1.134048 -0.619888 4.463765 33 86 72
1.150239 -0.682770 4.526226 38 75 65
1.260346 -0.338908 4.191093 46 129 160
1.176617 -0.696807 4.534013 36 78 60
1.209808 -0.598640 4.445994 159 178 159
1.735391 1.195420 2.666384 41 45 73
1.326748 -0.289517 4.145011 165 164 173
1.295793 -0.454456 4.307053 34 88 71
1.294733 -0.567604 4.416296 31 80 64
1.393385 -0.416904 4.269278 97 51 133
1.376361 -0.520904 4.369220 18 75 50
1.380118 -0.665849 4.510025 124 104 93
1.478343 -0.377882 4.228662 177 170 185
1.484832 -0.370871 4.226275 96 56 127
1.591190 -0.501531 4.351685 23 120 158
1.621064 -0.653248 4.492090 64 112 94
-0.620902 1.203575 2.640004 58 67 165
0.053282 1.567563 2.306030 167 176 180
-4.365082 0.028213 2.989998 40 35 44
-4.133245 -0.726533 3.527064 24 20 31
-4.329756 -0.053553 3.082797 123 118 127
-3.727259 -0.493347 3.217364 130 126 132
-4.367239 0.242122 2.975435 43 39 45
-4.545266 1.007124 2.461308 77 70 75
-3.743533 -0.564447 3.356855 110 108 120
-4.367680 0.292974 3.028565 56 53 62
-4.136317 -0.971743 3.929335 127 120 127
-3.740288 -0.240584 3.286875 63 63 69
-4.069022 -0.575090 3.755450 5 3 3
-3.961556 -0.448219 3.650110 5 4 6
-4.212424 1.632454 2.205555 162 160 179
-4.274615 1.340910 2.472566 174 173 182
-3.701002 -0.365721 3.511187 132 131 135
-3.688491 -0.355898 3.528390 8 8 8
-4.111490 1.534696 2.288947 167 166 182
-4.144728 1.309902 2.521472 169 163 194
-3.759456 2.195210 1.678591 44 44 56
-3.614523 2.068395 1.697189 28 28 44
-4.292537 0.315812 3.507225 26 30 31
-3.868094 1.593885 2.242977 167 166 182
-4.232632 0.407043 3.416649 64 67 72
-3.807827 1.714972 2.129997 176 175 184
-3.641893 2.130538 1.706112 167 167 173
-3.641732 2.175720 1.680283 177 177 183
-4.211347 0.348875 3.473056 106 110 111
-3.236090 2.794817 1.083376 80 79 99
-4.140199 -0.481632 4.289635 160 167 160
-2.809623 2.579107 1.297883 71 82 90
-2.579046 3.098874 0.767448 70 74 92
-3.223146 0.582573 3.238253 67 72 87
-3.601657 -0.697402 4.540441 29 26 48
-3.096448 0.525946 3.314510 167 172 171
-3.008185 0.631559 3.210099 170 174 175
-3.030215 0.457182 3.382041 64 72 85
-2.991848 0.336045 3.493172 69 72 86
-2.757079 0.464262 3.345868 33 40 59
-2.666973 0.409335 3.422468 79 83 84
-2.799750 -0.008076 3.846477 173 174 178
-2.683791 0.137866 3.695799 39 43 62
-2.851320 -0.879636 4.703913 135 100 187
-2.582060 -0.026683 3.867787 176 179 183
-2.330249 0.198765 3.621969 43 49 62
-2.350019 0.128809 3.695483 172 173 177
-2.393407 0.014788 3.816279 86 88 98
-2.260278 0.449777 3.389015 44 53 73
-2.081328 0.702551 3.143288 167 172 173
-2.078130 0.588399 3.254888 66 71 74
-2.041923 0.453559 3.384543 81 86 85
-2.101329 0.070605 3.763940 49 55 62
-0.958441 2.510293 1.357280 173 181 188
-1.174115 1.459249 2.398849 149 125 135
-0.838555 1.354870 2.507232 175 182 179
-0.803169 1.279142 2.585050 167 180 172
-0.735146 1.300196 2.558652 168 179 169
-0.677260 1.333471 2.522243 169 174 173
-0.684069 1.308799 2.551355 168 174 181
-0.668927 1.356108 2.510520 63 86 72
-0.653870 1.363219 2.492677 168 176 175
-0.427808 2.086103 1.783288 64 76 82
-0.426319 2.068153 1.802363 170 178 177
-0.645915 1.213162 2.643109 53 61 150
-0.590558 1.351602 2.507006 176 183 178
-0.622801 1.176127 2.683161 43 27 164
-0.987769 -0.128592 3.976703 42 133 170
-0.614946 1.085312 2.777322 154 164 181
-0.304633 2.077991 1.795181 146 181 177
-0.400065 1.243997 2.611478 186 193 196
-0.412750 1.197140 2.659168 49 61 169
-0.386747 1.136189 2.720003 47 66 153
-0.330010 1.074290 2.787056 148 178 205
-0.285459 0.952064 2.900799 60 67 178
0.071482 1.572164 2.302718 47 67 78
-0.509614 -0.504194 4.343040 122 86 162
-0.501130 -0.545949 4.393085 112 73 159
0.221360 1.637931 2.229529 37 58 73
0.592238 1.918321 1.950935 126 171 168
0.437354 1.345041 2.509669 134 181 173
0.661341 1.904225 1.946865 68 80 90
0.338621 0.628451 3.224822 196 198 208
0.590364 1.350894 2.520930 131 182 175
0.570379 1.253071 2.606238 44 55 69
0.827061 2.012752 1.835644 45 53 60
0.676145 1.538362 2.342832 132 170 170
0.848261 1.791667 2.066347 30 56 62
0.648516 0.894158 2.960203 44 53 63
0.667903 0.881944 2.984311 45 128 90
0.714046 0.912115 2.956045 26 51 53
0.983983 1.791711 2.067964 34 47 55
0.715945 0.840054 3.024001 174 181 178
0.762704 0.850955 3.012439 50 63 79
1.081148 1.893600 1.960753 124 173 171
0.868749 1.130834 2.728574 127 173 167
0.797873 0.850401 3.008876 32 48 64
0.890793 1.155702 2.709013 130 173 170
0.903283 1.136846 2.721883 21 39 50
0.820551 0.846273 3.013407 182 187 186
0.923920 1.090671 2.773358 19 39 44
1.157488 1.843715 2.000897 124 167 164
0.935943 1.076520 2.787860 147 175 175
0.470594 -0.668323 4.503178 170 140 75
0.941994 1.040074 2.830489 45 132 96
1.066358 1.448491 2.409722 21 37 49
0.926604 0.887009 2.976786 28 44 61
0.961192 0.951704 2.910191 25 47 59
1.065542 1.230713 2.636072 43 55 73
1.080196 1.241472 2.620958 46 67 82
0.540401 -0.737567 4.583023 171 144 70
1.004689 0.902255 2.951230 130 165 161
1.100372 1.235647 2.622581 126 172 166
1.101237 1.233742 2.647100 128 171 168
1.027311 0.914576 2.945713 137 178 173
1.056865 0.911477 2.945935 44 55 69
1.077083 0.909888 2.949561 173 179 178
0.645973 -0.647544 4.493228 178 179 163
0.807074 -0.086004 3.944730 118 96 60
0.686825 -0.814744 4.635921 32 64 153
1.228879 0.930503 2.927031 29 35 58
0.866257 -0.590871 4.431161 167 134 71
0.658602 -1.368941 5.192799 116 128 128
0.879637 -0.603698 4.456091 160 132 68
1.185606 0.105310 3.756632 34 128 74
1.475357 0.966271 2.899266 176 181 184
1.042912 -0.643391 4.482021 41 93 75
1.087119 -0.582265 4.426167 33 87 74
1.114782 -0.483568 4.329220 40 85 82
1.120679 -0.699241 4.533680 0 38 25
1.140951 -0.759004 4.596339 166 175 154
1.210975 -0.598674 4.445247 159 178 159
1.258517 -0.433802 4.285339 36 80 74
1.266268 -0.452949 4.303311 28 80 63
1.276157 -0.496347 4.342163 11 67 68
1.218980 -0.710873 4.553840 137 103 79
1.276254 -0.510308 4.360844 31 82 68
1.302162 -0.481874 4.331004 17 73 54
1.358009 -0.551120 4.399989 44 95 75
1.374644 -0.520340 4.369829 22 78 55
1.455712 -0.459648 4.310823 34 110 152
1.517574 -0.443277 4.295353 168 180 190
1.782955 0.240438 3.624744 48 126 79
1.602872 -0.593875 4.445517 58 110 93
-4.369902 0.030414 2.991816 40 35 44
-4.173028 -0.844354 3.626623 21 17 28
-4.413324 0.354352 2.883096 82 73 76
-3.719187 -0.501775 3.442191 40 39 48
-3.945965 -0.454955 3.648191 2 2 2
-4.204478 1.615435 2.209777 163 163 177
-4.045808 1.660248 2.166093 169 169 185
-4.020061 1.694639 2.141978 171 173 183
-3.842631 1.671757 2.159899 174 172 184
-3.812276 1.705792 2.136001 175 174 184
-2.704711 2.891610 1.006667 70 78 95
-2.762035 2.484521 1.364319 68 81 95
-3.522473 -0.695433 4.494093 72 56 90
-2.441424 1.918035 1.921623 84 158 124
-2.331951 2.094810 1.778500 172 182 176
-2.982607 -0.530991 4.351110 176 170 181
-2.801355 -0.149550 3.972952 55 62 79
-2.919448 -1.098348 4.900879 177 176 192
-2.043438 0.448522 3.387856 70 75 74
-2.036649 -0.951768 4.768081 161 151 97
-0.108550 2.548199 1.298115 65 69 80
0.053855 1.562750 2.315460 172 180 180
0.030250 1.097422 2.756787 116 137 139
0.508559 1.340068 2.520603 50 66 78
0.655584 0.910712 2.950630 39 47 64
0.768755 0.848370 3.004735 42 61 69
0.611538 0.281077 3.581861 145 153 160
0.404614 -0.487875 4.329289 60 53 26
0.848303 1.052692 2.801058 64 88 100
0.873134 1.030876 2.837801 128 174 168
0.895487 1.032675 2.829844 13 53 52
1.155889 1.841976 2.000366 127 175 169
0.867600 0.866469 2.987476 24 40 53
1.170390 1.859984 2.008811 35 51 64
0.967193 0.932023 2.934075 21 37 53
0.643133 -0.577165 4.402501 182 179 174
1.120676 0.940627 2.931476 21 37 53
0.721302 -0.637693 4.474013 167 143 85
0.843711 -0.684551 4.518358 173 143 78
0.880927 -0.605297 4.455270 160 132 68
0.899139 -0.677686 4.523452 163 131 56
1.012046 -0.270275 4.132560 69 94 96
0.912381 -0.749384 4.593429 23 79 74
1.294111 0.295316 3.559851 174 185 175
1.577026 1.073306 2.784599 45 51 70
1.620847 1.069285 2.770696 173 179 178
1.168160 -0.551560 4.406140 168 174 173
1.744424 1.191401 2.667401 23 33 51
1.364702 -0.501139 4.357230 46 99 90
1.667008 0.346844 3.510739 157 178 163
1.456621 -0.527228 4.382813 21 113 162
1.594306 -0.466478 4.317193 21 109 156
2.044117 1.014188 2.838592 166 174 173
1.646746 -0.478544 4.336442 35 115 162
-0.803039 1.277054 2.588554 168 176 175
-0.592299 1.320680 2.555455 168 176 176
0.914393 1.910502 1.937202 123 169 163
0.748619 0.842543 3.025192 174 176 176
0.884660 0.876713 2.970228 124 172 166
-3.978830 1.729954 2.113729 115 75 176
-3.981304 1.291646 2.538911 173 176 180
-4.219838 0.349193 3.429524 158 158 158
-3.791373 1.774622 2.049831 176 179 183
-4.236721 0.316746 3.534831 158 163 162
-3.541546 1.839059 2.019335 175 178 186
-3.735339 0.320213 3.494025 88 115 135
-2.674752 2.863439 1.016357 68 76 93
-3.679325 -0.673786 4.564670 35 25 55
-3.175565 0.455013 3.375970 44 50 69
-2.338652 2.017107 1.818946 174 182 181
-2.995342 -0.520945 4.345940 181 177 189
-2.695467 0.443353 3.401462 173 178 179
-2.438580 -0.002803 3.814274 186 189 187
-1.614452 2.806515 1.088150 94 123 138
-2.444918 -0.113758 3.944384 61 66 65
-2.206017 0.439545 3.409195 181 183 183
-0.736839 1.359319 2.509777 175 180 179
-0.394905 2.151923 1.716679 45 140 96
-0.610829 1.202893 2.675594 172 177 180
-0.468414 1.189992 2.664964 173 176 184
-0.435873 1.213578 2.650405 55 59 164
0.047022 1.565948 2.322461 175 183 183
0.660089 1.912411 1.947142 63 77 89
0.508750 1.356759 2.584173 45 54 64
0.547530 1.291930 2.588553 63 71 88
0.573081 0.277594 3.581741 29 58 102
1.015701 1.794449 2.075376 51 65 71
0.771249 0.885949 2.955655 132 181 173
1.056588 1.759300 2.089288 79 95 101
0.947864 0.983074 2.883533 45 83 85
1.424685 1.260946 2.588905 30 53 68
0.916683 -0.746635 4.592625 24 78 71
1.053728 -0.333458 4.161661 71 91 96
1.053316 -0.338104 4.193329 67 87 92
1.082808 -0.541312 4.396061 166 175 162
1.577484 1.068307 2.783473 40 46 65
1.218171 -0.288202 4.160192 35 114 171
1.674635 1.142303 2.710371 171 175 176
1.194409 -0.595114 4.440108 23 81 63
1.337742 -0.331068 4.184623 93 43 131
1.448383 -0.637994 4.507136 138 100 76
1.572104 -0.433018 4.295033 35 107 154
1.815614 0.243812 3.616975 38 124 70
-4.266421 0.237705 3.088497 152 147 148
-4.091404 -0.642786 3.740023 132 129 131
-3.907789 -0.472749 3.650336 3 3 3
-3.533319 1.837677 2.029836 176 181 184
-3.727449 0.306395 3.493608 84 116 135
-2.362507 1.410895 2.430228 109 130 181
-1.800438 2.891127 0.989664 94 125 140
-0.431361 2.181920 1.696009 52 147 103
0.267497 2.201234 1.657743 48 142 95
0.668537 1.903939 1.946491 78 94 107
0.128800 -1.611627 5.396209 134 69 138
0.536543 -0.486967 4.338882 48 135 169
0.556243 -0.562358 4.400970 174 138 68
1.200470 1.714811 2.155230 51 67 80
1.065688 -0.517207 4.354911 21 83 83
1.198880 -0.523961 4.365506 29 84 69
1.266529 -0.686978 4.513335 172 173 169
-0.483975 1.195861 2.654697 126 133 136
-4.142966 0.785729 2.905137 177 179 179
-3.863219 1.118097 2.679294 177 180 184
-2.874119 -0.547561 4.381622 51 50 70
-2.416005 -0.023662 3.843377 169 171 171
-0.770815 2.601069 1.258471 71 128 160
-0.187692 1.060517 2.788785 63 89 65
1.291974 0.624254 3.255408 48 134 74
0.981297 -0.897584 4.697753 47 101 88
1.349821 -0.540729 4.406603 33 85 67
1.104864 0.186052 3.670670 181 187 186
0.984468 -0.913870 4.715020 38 90 83
1.284228 0.207609 3.659422 174 181 178
0.623946 -0.798736 4.634123 27 21 152
0.698054 -0.829781 4.667188 13 24 138
1.281359 -0.373345 4.222256 183 165 204
1.331582 -0.335491 4.186352 180 177 193
1.417114 -0.302172 4.152625 108 88 130
1.451337 -0.292053 4.139741 178 165 197
0.922898 -0.751050 4.592170 0 37 28
0.731530 -0.929822 4.765305 30 66 142
0.745434 -0.928086 4.762201 42 67 147
0.795839 -0.890637 4.727486 23 33 140
1.404258 -0.396397 4.246817 80 55 115
0.727850 -0.976651 4.810071 37 51 147
1.001235 -0.828438 4.574780 0 41 31
0.742852 -0.975836 4.810687 14 49 135
0.996644 -0.771893 4.610480 0 29 20
0.846556 -0.918850 4.753666 27 26 136
1.104266 -0.743682 4.583887 0 30 16
1.157199 -0.699151 4.544632 0 29 15
1.000348 -0.887427 4.727481 0 30 22
1.014098 -0.896960 4.733673 0 36 30
0.822269 -1.059586 4.894026 106 71 138
0.922021 -0.986101 4.817220 85 62 116
1.548420 -0.616389 4.467770 0 26 20
1.678740 -0.637352 4.486932 27 74 58
1.700505 -0.633710 4.482783 0 22 6
1.774119 -0.602867 4.450463 55 92 72
1.568518 -0.793162 4.639973 0 33 24
1.767772 -0.622278 4.472025 0 34 21
1.746914 -0.675179 4.523366 0 30 21
1.787884 -0.651139 4.497776 0 43 25
1.606433 -0.809535 4.660005 0 30 18
1.674082 -0.757433 4.609601 75 91 84
1.711167 -0.772841 4.618886 0 36 23
-3.150895 2.786678 1.053039 94 99 108
-2.661513 2.826789 1.010344 65 74 84
-1.469452 3.539197 0.325456 110 110 124
-3.023048 2.178897 1.661808 112 96 157
-4.125475 1.297300 2.519723 164 143 198
-3.658292 1.337845 2.491954 158 147 193
-0.361467 2.747504 1.126844 158 164 171
0.231604 2.869073 0.990302 46 81 107
-0.007764 2.719378 1.153128 51 93 128
0.306086 2.810164 1.048398 113 107 118
-2.974615 0.380606 3.440560 116 124 137
-2.900503 0.397651 3.420056 106 113 130
-2.414894 0.665431 3.172904 109 115 114
-2.403297 0.528232 3.308800 101 107 126
-0.279551 2.080958 1.784921 143 162 165
-0.259011 2.087217 1.777004 65 78 86
-0.284840 2.025995 1.837350 51 77 83
-2.646816 0.134097 3.700479 166 171 174
-2.802122 -0.039430 3.847929 46 52 63
-2.056261 0.388752 3.437197 77 82 83
-2.297544 0.207437 3.618601 69 75 82
-2.258629 0.232199 3.594689 80 86 85
-2.345272 0.126871 3.696185 171 173 174
-2.634268 -0.134161 3.943906 45 51 64
-2.431291 0.032637 3.802998 53 59 72
-2.196734 0.084652 3.740307 154 157 161
-2.193735 0.069307 3.753659 38 44 63
-2.100128 0.069675 3.762324 45 53 60
0.143799 1.762496 2.104514 129 169 167
0.602922 1.929766 1.939558 54 73 78
-1.963518 -0.533603 4.361609 135 106 161
-1.874088 -0.480206 4.317968 170 175 176
1.056252 1.776437 2.090970 28 60 55
-1.699504 -0.550844 4.374302 56 61 62
-1.607467 -0.512007 4.341346 46 55 65
-0.911688 -0.013813 3.845875 188 198 205
-0.758134 0.004168 3.828951 16 28 70
1.100792 1.462710 2.404404 34 51 60
1.045127 1.226325 2.635793 131 169 169
0.669768 0.913373 2.939507 158 171 173
0.700376 0.837219 3.014992 54 76 87
-1.647038 -1.190555 4.975072 124 124 84
-0.365594 -0.447270 4.276303 98 72 155
-0.357867 -0.469757 4.299920 103 79 157
-0.347756 -0.512384 4.347980 108 79 164
-0.323055 -0.545073 4.378526 171 167 186
-0.566046 -0.936546 4.751621 129 101 120
1.155138 0.204720 3.645679 165 188 174
0.042711 -0.751746 4.580235 128 107 122
0.438416 -0.480114 4.321768 157 125 72
0.703987 -0.424582 4.266509 178 143 87
0.657452 -0.593386 4.431198 159 133 86
0.623824 -0.787203 4.624422 19 57 135
0.808946 -0.702805 4.550148 146 117 48
1.069839 -0.501460 4.349564 25 85 97
1.356780 -0.305747 4.146346 120 92 145
0.791060 -0.815863 4.651500 31 16 151
1.238368 -0.465409 4.313400 37 91 86
0.846800 -0.809767 4.646747 12 43 128
1.203099 -0.519458 4.365367 30 79 57
1.285408 -0.460299 4.308199 18 72 55
1.213693 -0.540270 4.389039 20 76 55
0.876386 -0.846028 4.682902 25 49 139
1.074158 -0.680035 4.522408 29 77 59
1.217896 -0.565270 4.412223 30 78 52
1.085521 -0.677269 4.522587 156 169 155
0.881050 -0.857069 4.694447 12 48 126
0.847251 -0.897728 4.735244 82 133 183
0.857023 -0.896493 4.733404 30 14 155
0.798883 -0.958237 4.795536 20 35 135
1.269783 -0.556139 4.407771 21 78 70
1.295381 -0.545526 4.396666 159 166 159
1.143991 -0.695876 4.539519 0 21 7
0.803581 -1.006675 4.841388 93 69 127
0.980772 -0.861261 4.700519 38 81 72
0.945053 -0.894657 4.731213 0 32 25
1.330130 -0.565763 4.412599 20 73 53
1.114929 -0.766968 4.606524 72 123 109
0.807535 -1.031686 4.865867 78 53 113
1.182118 -0.716972 4.557590 25 77 54
1.583443 -0.397078 4.246767 37 119 154
1.214649 -0.706356 4.556274 136 107 92
1.018232 -0.881248 4.719821 23 68 49
0.913513 -0.986434 4.825053 84 59 121
1.047273 -0.884227 4.719663 147 161 157
0.974605 -0.953326 4.790927 31 88 80
1.056062 -0.902457 4.741871 0 27 18
1.066882 -0.895745 4.734551 0 37 23
1.170955 -0.865114 4.701340 35 81 62
0.897653 -1.143591 4.976586 73 52 107
1.113934 -0.953527 4.796771 35 83 65
1.605801 -0.585459 4.436064 0 30 19
1.661230 -0.566872 4.414497 34 79 63
1.431013 -0.775168 4.625238 147 113 83
1.645306 -0.619031 4.471374 72 122 104
1.598891 -0.668801 4.515489 37 90 70
1.695457 -0.591949 4.439416 70 117 101
1.672096 -0.639799 4.493378 133 171 153
1.538057 -0.747364 4.608944 203 208 206
1.545570 -0.758666 4.612050 14 74 80
1.395687 -0.893227 4.737764 137 103 79
1.580782 -0.742462 4.597042 27 69 58
1.559295 -0.771484 4.621356 0 36 26
1.567134 -0.767636 4.617642 66 115 101
1.560751 -0.780797 4.633917 0 35 25
1.614312 -0.744493 4.597980 40 72 61
1.559682 -0.803428 4.654027 26 83 74
1.726453 -0.663293 4.516092 32 78 72
1.592640 -0.802986 4.655851 0 21 12
1.753878 -0.685501 4.534985 0 24 19
1.794818 -0.811944 4.481753 0 34 20
1.736904 -0.738098 4.585448 15 66 68
1.697501 -0.776093 4.625982 0 28 16
1.651356 -0.817959 4.669202 0 24 13
1.666464 -0.814922 4.669801 0 24 12
1.681977 -0.816179 4.668694 0 38 24
1.804036 -0.728093 4.578014 0 25 15
-0.801712 2.605034 1.259512 11 65 96
-0.847072 2.497124 1.362319 19 47 88
0.068681 3.087476 0.778847 97 93 105
0.072773 2.984002 0.860712 176 177 181
-2.985265 0.639185 3.178592 50 61 75
-3.024286 0.595464 3.233377 157 163 168
0.064753 2.720093 1.148111 38 92 125
0.150603 2.709059 1.163194 171 181 188
-0.005047 2.594114 1.273600 118 104 128
-1.157805 1.693954 2.148476 179 181 182
0.386035 2.772978 1.095248 109 102 115
-2.350460 0.728247 3.102336 167 172 173
-2.406026 0.631856 3.213995 54 61 70
-2.775182 0.310448 3.509525 167 172 173
-2.471707 0.557264 3.287571 58 63 78
-1.162610 1.442361 2.396330 147 121 134
-2.081079 0.745829 3.078212 44 52 69
0.050592 2.356333 1.528409 58 140 98
-2.643678 0.131468 3.702838 160 165 168
-2.297467 0.207977 3.619489 69 75 82
-2.382529 0.119774 3.711981 174 176 176
-2.591076 -0.084676 3.908900 162 167 170
-2.435573 0.036802 3.803492 48 53 68
-2.614243 -0.090071 3.933003 159 165 170
-2.316077 -0.074075 3.906975 65 70 69
0.932538 2.315033 1.549893 154 170 187
0.381551 1.917377 1.956609 133 176 173
-2.013465 0.028138 3.801741 38 46 63
0.043138 1.572509 2.287545 59 71 81
0.602887 1.928949 1.939323 54 73 78
0.642002 1.921890 1.947355 50 65 67
0.710291 1.901633 1.966016 43 72 76
0.755617 1.882027 1.989880 40 70 75
1.158040 1.857545 2.019440 135 180 177
-0.840571 0.233406 3.600042 146 175 184
-1.795621 -0.518251 4.356596 180 185 186
-1.700803 -0.550183 4.374519 56 61 62
-0.833845 -0.005543 3.835913 23 42 87
-1.523845 -0.583097 4.398122 143 108 165
1.108459 1.474959 2.388862 181 187 186
1.142445 1.437544 2.425090 49 60 74
-0.635712 -0.016054 3.850004 171 177 188
0.663241 0.943498 2.917444 174 185 183
1.045865 1.213791 2.635140 142 182 180
0.668034 0.921104 2.938679 153 167 166
-0.723608 -0.215393 4.040877 160 176 188
1.068643 1.226311 2.650953 143 182 180
1.277745 0.944629 2.936543 157 162 163
-0.498482 -0.529994 4.365825 123 84 169
-0.367266 -0.447111 4.276697 98 72 155
-0.359632 -0.469648 4.300610 94 68 152
1.716870 1.187497 2.668101 148 152 153
1.555407 1.074924 2.802209 188 193 196
1.488203 0.978643 2.861081 124 165 160
-0.353868 -0.490833 4.324528 100 71 156
-0.346112 -0.515603 4.346866 107 76 161
1.692856 1.125935 2.735073 171 176 175
1.693750 1.108003 2.738132 196 201 200
-0.351432 -0.560427 4.393657 109 75 152
1.165148 0.083446 3.773604 48 134 92
0.588030 -0.430878 4.267231 167 141 87
0.473702 -0.595764 4.432853 165 166 157
0.373721 -0.675278 4.516450 150 120 71
0.499576 -0.611875 4.451790 155 120 52
1.681047 0.366504 3.486592 39 121 69
0.546718 -0.617036 4.456311 177 141 81
0.637611 -0.558813 4.396542 175 140 76
0.644996 -0.567226 4.407424 182 179 164
-0.222013 -1.335967 5.143944 186 145 173
0.657517 -0.592962 4.431291 159 133 86
0.825099 -0.488531 4.331744 171 136 73
-0.034151 -1.275620 5.089735 132 106 122
0.658994 -0.692288 4.525032 165 134 73
0.738387 -0.681211 4.519568 194 188 165
0.739120 -0.692728 4.530352 170 135 62
1.201456 -0.326976 4.177474 164 177 185
0.936147 -0.576520 4.422802 163 133 68
0.811144 -0.705820 4.548785 155 126 52
0.935179 -0.600812 4.446235 162 135 79
1.071827 -0.504681 4.348881 25 87 95
1.089318 -0.521761 4.367220 170 187 173
1.131598 -0.514856 4.357974 158 175 171
1.057046 -0.583392 4.428061 20 80 80
1.064905 -0.586983 4.431799 21 80 76
1.238587 -0.434409 4.287835 42 89 86
1.086435 -0.601277 4.453144 31 85 72
1.202563 -0.520904 4.365561 21 77 56
1.102072 -0.615485 4.456004 40 93 83
1.216708 -0.564457 4.413332 25 75 51
0.897370 -0.851386 4.688365 31 110 153
1.209150 -0.588056 4.435968 35 89 66
1.199006 -0.603745 4.449082 32 84 61
1.117202 -0.684714 4.525231 29 80 72
1.003295 -0.782856 4.621092 31 80 66
1.019735 -0.789524 4.629342 162 175 173
1.151595 -0.682826 4.527664 31 76 60
1.345513 -0.535709 4.377957 166 172 177
1.325858 -0.555551 4.402048 38 92 79
1.356233 -0.533801 4.384503 23 77 70
1.245710 -0.645928 4.494735 129 100 86
1.180674 -0.717121 4.558255 27 80 60
1.215382 -0.684392 4.531344 135 99 91
1.047420 -0.831145 4.676040 167 174 177
1.539905 -0.439088 4.289088 42 110 157
0.917013 -0.987837 4.821885 80 48 125
1.639013 -0.424508 4.279842 52 116 151
1.383316 -0.647454 4.497103 135 105 94
1.591769 -0.503977 4.348179 16 121 162
1.049811 -0.966267 4.803943 34 87 73
1.325680 -0.744652 4.589032 140 102 68
1.172733 -0.888305 4.724878 43 88 69
1.163797 -0.912896 4.752145 18 71 51
1.115320 -0.955375 4.794327 35 83 65
1.472413 -0.675091 4.524077 137 100 74
1.343467 -0.784993 4.637039 146 111 85
1.544371 -0.640620 4.490285 0 29 17
1.480390 -0.698378 4.547055 138 99 71
1.352525 -0.808161 4.656558 145 110 100
1.393838 -0.805392 4.652247 178 177 173
1.410497 -0.804315 4.652053 137 102 89
1.336852 -0.881432 4.729904 147 111 87
1.630590 -0.645595 4.500370 30 80 56
1.501355 -0.766279 4.617150 142 104 80
1.672229 -0.643300 4.492740 126 158 141
1.544824 -0.782131 4.636582 22 76 71
1.512187 -0.813045 4.664260 136 101 67
1.489172 -0.840133 4.691669 129 105 93
1.614225 -0.743782 4.599623 34 75 60
1.560113 -0.802722 4.653747 28 85 76
1.727161 -0.663023 4.516836 30 77 69
2.126302 -0.350496 4.205391 126 106 141
1.657767 -0.756102 4.609908 31 80 64
1.600196 -0.819388 4.672627 32 81 67
1.728807 -0.729523 4.581224 154 165 169
1.711583 -0.746072 4.599437 144 155 153
1.723039 -0.748866 4.601618 19 71 78
-2.777808 2.565674 1.287113 71 80 93
-4.026022 1.319150 2.534031 167 164 190
-1.689503 2.805659 1.031860 169 175 174
-1.521120 2.873905 0.977207 163 171 171
0.208672 3.312101 0.548509 174 173 182
-1.221263 2.193364 1.664122 130 116 174
0.179473 2.281113 1.605008 60 140 97
-2.065588 0.391735 3.442179 88 94 93
0.957198 2.375445 1.501415 164 188 216
-0.911776 0.176168 3.647148 178 184 189
-1.561997 -0.571740 4.407717 141 104 166
0.822378 0.902735 2.966254 34 54 65
1.518324 1.005679 2.852065 42 50 67
1.130950 0.210726 3.634194 47 136 96
0.698748 -0.425279 4.267807 184 150 91
0.549149 -0.561854 4.397895 161 129 58
0.889565 -0.421937 4.269132 72 66 31
0.854985 -0.473143 4.308194 180 145 81
0.829006 -0.489587 4.331801 170 141 72
0.931482 -0.558722 4.397663 152 117 51
0.907799 -0.631415 4.477484 166 134 68
0.853541 -0.695464 4.535312 178 176 165
0.874352 -0.688194 4.527914 179 142 80
1.129103 -0.516525 4.360570 165 168 166
0.966524 -0.668985 4.513896 19 75 70
1.084992 -0.580815 4.428210 26 79 66
0.993170 -0.676099 4.524206 29 81 64
1.092383 -0.603305 4.451613 28 84 73
1.026062 -0.668274 4.523270 28 77 61
0.972537 -0.730547 4.573090 19 72 58
0.923400 -0.771059 4.612198 27 84 75
1.215570 -0.566059 4.412679 23 75 52
1.203572 -0.585373 4.437466 31 87 68
1.052423 -0.770584 4.610836 26 74 62
1.371821 -0.519896 4.368642 22 77 58
1.328687 -0.564318 4.408370 24 80 61
1.227117 -0.655431 4.506135 138 104 91
1.132758 -0.742375 4.584725 27 76 60
1.216043 -0.681819 4.532194 141 99 86
1.142775 -0.758365 4.598703 158 169 161
1.518120 -0.439019 4.289044 165 175 182
1.062119 -0.823200 4.671123 17 69 59
0.980116 -0.895068 4.741498 33 86 73
1.267254 -0.665643 4.511922 159 160 151
1.540241 -0.436376 4.289273 41 113 160
0.919341 -0.990000 4.821162 86 53 134
1.226228 -0.731565 4.577234 138 97 74
1.297706 -0.674844 4.520078 148 110 80
1.231370 -0.752803 4.602095 150 111 83
1.082506 -0.884000 4.730143 33 84 70
1.053940 -0.912095 4.754910 31 82 68
1.025360 -0.941161 4.783769 27 80 67
1.639676 -0.432481 4.283903 31 114 159
1.381205 -0.662126 4.511222 141 100 85
1.321812 -0.743770 4.589862 140 101 69
1.388972 -0.678952 4.535947 142 106 82
1.181695 -0.874231 4.712107 154 166 148
1.082996 -0.960658 4.802989 30 84 67
1.451981 -0.648915 4.501880 145 104 81
1.329853 -0.766121 4.613354 136 97 65
1.654510 -0.494293 4.347394 20 121 159
1.340304 -0.787629 4.635974 137 100 78
1.422523 -0.750935 4.603608 146 107 79
1.426554 -0.775543 4.625584 150 110 85
1.629355 -0.649251 4.499161 26 76 52
1.695760 -0.644238 4.492015 27 79 62
1.581748 -0.739116 4.601653 34 80 67
1.708441 -0.655751 4.507404 150 164 160
1.561371 -0.803130 4.652720 23 78 69
1.731491 -0.661436 4.516294 28 77 63
1.727827 -0.701097 4.550632 167 185 186
