ply
        format ascii 1.0
        element vertex 7057
        property float x
        property float y
        property float z
        property uchar red
        property uchar green
        property uchar blue
        end_header
1.477575 0.333972 3.511234 33 119 71
-0.582938 0.881578 2.966685 28 33 142
-0.554299 0.903608 2.947019 94 119 193
-0.620614 1.019850 2.822113 40 66 143
-0.524106 1.026233 2.815475 44 133 170
-0.842050 1.139424 2.703829 52 78 138
-0.209137 1.086481 2.756239 38 61 46
-0.654236 1.191072 2.650808 159 169 193
-0.202192 1.093066 2.746559 140 161 158
0.674769 0.907395 2.936989 117 151 144
-0.625273 1.208447 2.631804 26 61 124
-0.175225 1.119997 2.723884 42 70 57
-0.444131 1.180033 2.665426 133 143 167
-0.332809 1.155254 2.690026 45 54 144
-0.375508 1.174027 2.662520 116 148 177
-0.430121 1.187814 2.654096 26 47 99
-0.484198 1.201136 2.641721 87 119 124
-0.350468 1.175040 2.667100 44 69 111
-0.775186 1.272336 2.566948 151 188 180
-0.366589 1.189336 2.654490 98 152 182
-0.724570 1.289414 2.552076 37 73 43
-0.403114 1.223334 2.621979 85 140 171
-0.650499 1.277530 2.563451 43 58 131
-0.414155 1.226972 2.618613 32 45 101
-0.390741 1.222379 2.617735 98 143 164
-0.653367 1.288031 2.551532 52 75 137
-0.418237 1.243478 2.599659 68 99 102
-0.650610 1.297893 2.555814 98 124 191
-0.365501 1.242300 2.605835 48 55 98
-0.656695 1.305185 2.534404 120 151 150
-0.808887 1.342812 2.498553 135 157 145
-0.588919 1.312782 2.531195 27 61 61
-0.654959 1.330123 2.512752 128 153 149
-0.742817 1.361989 2.479489 23 62 36
-0.636850 1.348199 2.490634 15 51 29
0.915880 1.009527 2.818331 62 135 109
-0.630574 1.356475 2.485049 122 144 132
-0.292807 1.292544 2.553978 65 97 96
-0.391458 1.316458 2.530680 71 101 106
-0.618142 1.367571 2.478036 51 82 67
0.938628 1.041287 2.802334 98 150 140
0.871789 1.087340 2.760763 65 130 109
-0.182679 -2.858572 6.659322 24 103 142
-0.015843 -2.762039 6.552565 135 162 158
-1.434255 -1.830253 5.620923 10 88 159
0.508312 -2.170028 6.009995 93 62 113
1.296395 -2.099641 5.929245 113 100 152
-3.538374 -0.777399 4.567037 21 26 51
-2.827215 -0.558803 4.391993 31 37 60
-2.900868 -0.544022 4.449188 130 123 168
0.884966 -0.860870 4.691189 33 84 147
1.452332 -0.859419 4.712173 163 185 180
-2.514752 0.006149 3.812120 26 46 63
1.117913 -0.690064 4.522622 13 64 50
1.278450 -0.377068 4.215183 110 115 148
-0.639626 0.443322 3.393569 25 81 160
0.467020 0.290351 3.312551 7 5 4
-1.207438 0.709430 3.133049 60 111 131
1.151951 0.200241 3.644127 133 170 160
-0.286916 0.549492 3.300189 4 90 156
1.687596 0.314942 3.534179 30 116 62
-1.003199 0.997805 2.869702 120 171 163
0.837749 0.847187 2.999815 16 42 49
-0.594398 1.165474 2.677990 37 60 138
-0.470450 1.176000 2.673882 35 29 138
0.973700 0.889699 2.963480 131 158 154
0.987065 0.899198 2.951277 31 55 67
-0.647298 1.255190 2.588852 42 62 139
-0.724908 1.288136 2.551988 30 68 40
-0.836235 1.321829 2.514414 26 66 41
-0.354211 1.222996 2.612390 83 142 161
-0.382121 1.232259 2.612828 30 36 101
-0.656278 1.320211 2.520155 36 72 55
-0.736628 1.349597 2.488542 141 173 156
-0.487422 1.317509 2.528106 74 106 105
-0.635318 1.361565 2.487697 130 154 146
-0.316707 -2.317098 6.124211 138 169 162
-3.538453 -0.774382 4.559954 12 17 42
0.383759 -1.577684 5.390625 115 75 130
-3.527404 -0.727854 4.519888 18 22 46
-2.690342 -0.145352 3.966987 44 62 79
-2.627000 -0.116669 3.927936 40 61 76
1.040704 -0.868900 4.719580 168 191 186
1.475597 -0.829754 4.684956 171 193 188
-2.386758 0.016448 3.801287 37 56 71
-0.797991 0.251013 3.585900 51 149 197
-0.659619 0.399232 3.426451 33 111 170
-1.214560 0.628987 3.224995 153 186 179
-0.369508 0.469214 3.346802 51 128 77
-0.266484 0.550569 3.275970 19 103 169
-0.239202 0.607599 3.238465 138 172 171
-0.631706 0.870344 2.972282 130 168 170
0.435896 0.673992 3.174515 8 115 166
-0.905579 0.984765 2.862014 49 67 150
-0.299573 0.978503 2.865127 134 162 169
-0.545373 1.100261 2.741607 42 60 143
-0.594660 1.162617 2.671887 36 58 140
-0.112417 1.056605 2.764232 142 168 162
-0.128285 1.069042 2.754935 59 97 69
-0.661741 1.195591 2.653579 130 144 162
-0.539105 1.172789 2.679509 31 34 132
-0.501424 1.176324 2.675000 34 31 140
-0.442209 1.175005 2.684386 29 32 136
-0.625540 1.216277 2.636437 32 61 136
0.913264 0.881594 2.972322 145 208 198
-0.450196 1.183156 2.659477 131 150 163
-0.647651 1.257029 2.590631 44 64 142
1.009179 0.898663 2.950839 103 156 147
-0.417045 1.222602 2.616064 44 57 113
-0.719936 1.302326 2.544467 119 151 140
-0.784509 1.358017 2.488946 35 72 46
-0.646588 1.347860 2.493251 27 64 38
-0.574172 1.334737 2.510056 31 69 41
-0.778105 1.384124 2.462303 23 60 34
1.582056 -2.070029 5.929663 129 110 165
-0.856358 0.266847 3.564961 11 122 168
0.474591 0.254545 3.334491 6 7 5
0.507555 0.272525 3.379583 172 172 166
0.462114 0.282006 3.310532 9 10 8
-0.274180 0.557721 3.275534 13 88 167
-0.214592 0.838843 2.983187 31 37 144
-0.924072 1.027207 2.808644 134 172 166
-0.217894 1.073195 2.766505 25 64 38
-0.323468 1.146406 2.689200 27 32 135
-0.605738 1.360566 2.487568 38 76 48
0.332216 -2.503622 6.294802 114 87 130
-0.572393 1.327800 2.508297 18 58 30
-3.470745 -1.280507 5.143948 91 66 164
-2.574180 0.004440 3.846446 19 37 54
-1.275622 0.641917 3.192909 145 175 170
0.468486 0.259056 3.323492 7 8 6
0.464559 0.458557 3.410621 22 48 94
-0.680928 0.892772 2.978093 25 31 138
-1.071913 1.048760 2.796307 64 160 130
-1.003551 1.041663 2.802408 0 70 33
-0.940438 1.059266 2.787445 36 131 97
-0.961494 1.085290 2.757115 142 176 169
-0.829640 1.173642 2.681043 43 49 144
-0.531002 1.167853 2.686984 40 53 145
-0.162024 1.105374 2.731164 19 56 30
0.036577 1.096058 2.734646 105 148 145
0.954392 0.963656 2.854937 33 68 72
0.846892 0.859232 2.962804 45 127 75
0.283445 0.634833 3.248179 150 177 174
-1.024872 0.946917 2.874566 142 171 168
-3.303202 -1.994776 5.721624 18 26 33
-2.056170 0.419149 3.417286 86 91 90
0.843860 -1.023913 4.862790 100 92 122
-0.454733 0.442220 3.394301 25 31 38
-0.481288 0.477512 3.362659 188 192 193
-0.967880 0.877105 2.978520 121 104 207
-0.519907 0.622179 3.223627 176 135 203
-0.435776 0.605729 3.237570 135 74 170
-0.266464 0.579853 3.260999 131 180 230
-0.697447 0.890038 2.971316 96 84 204
1.284548 -0.379395 4.222464 91 69 121
1.377168 -0.432685 4.284419 191 180 206
1.366509 -0.419185 4.267128 115 114 124
-0.547855 0.867050 2.980595 46 30 142
-0.517330 0.879937 2.973084 122 111 227
1.406454 -0.388747 4.238923 101 74 130
0.487395 0.264729 3.338394 13 9 8
0.684409 0.844825 3.003175 13 54 46
0.649092 0.948094 2.904826 44 53 57
0.821523 0.842301 3.006404 45 58 60
0.656061 0.961463 2.888400 43 52 62
0.651888 0.983630 2.864485 45 59 77
0.844157 0.889824 2.959232 51 65 71
0.917313 0.875444 2.972838 30 57 61
0.630545 1.066526 2.779456 45 52 61
0.970917 0.912062 2.936232 90 102 120
1.016264 0.889754 2.957435 47 52 77
0.199688 1.428108 2.428560 49 59 69
0.970873 0.934028 2.920193 34 49 58
-0.114245 1.636667 2.213051 101 114 130
1.047028 0.896568 2.953923 40 47 62
0.964459 0.956423 2.896203 22 49 53
0.599680 1.193756 2.660189 39 56 65
0.840284 1.056717 2.792498 31 66 69
0.844512 1.055625 2.798489 95 122 132
0.877234 1.038038 2.810968 17 50 59
1.095837 0.955312 2.962486 32 46 58
0.984935 1.008253 2.848020 23 39 45
0.975823 1.015862 2.838326 3 40 30
1.131757 0.926506 2.919633 38 49 63
0.891289 1.113044 2.742206 16 36 41
0.886355 1.137861 2.716969 46 70 82
0.840620 1.193283 2.666821 134 178 172
1.249037 0.931610 2.929900 117 128 142
1.438326 0.955102 2.900809 89 102 118
1.444539 0.955135 2.905556 41 50 64
1.070723 1.213504 2.649452 42 58 74
-3.342961 -2.054216 5.793762 22 26 31
-3.259247 -1.991066 5.714628 138 144 155
-2.574675 -2.203814 5.936602 56 10 82
-3.658980 -0.361874 3.511195 5 3 3
-3.117372 -1.256960 5.008363 123 96 160
-3.579711 -0.724640 4.515736 23 22 48
-3.492043 -0.740301 4.516500 22 18 47
-2.920488 -1.121742 4.895712 115 90 158
-3.490092 -0.711785 4.497820 24 18 53
-3.494522 -0.613978 4.406787 136 119 156
-3.398986 -0.600778 4.392918 129 95 159
-2.765742 -0.979209 4.752173 52 15 107
-2.880500 -0.843796 4.624766 38 19 68
-3.125511 -0.494057 4.287323 130 101 170
-3.076623 -0.509608 4.308138 127 96 165
-0.063102 -2.626713 6.429929 75 154 133
-2.759671 -0.595590 4.397370 152 124 177
-2.748953 -0.566375 4.342665 27 22 53
-2.775045 -0.545892 4.336763 46 32 73
-3.835341 0.227515 3.563739 102 117 126
-0.007095 -2.441489 6.253791 163 170 167
0.116877 -2.459196 6.266626 80 55 93
-2.811369 -0.158886 3.970891 53 61 78
-2.860135 -0.034603 3.864131 51 54 68
-0.595751 -1.585050 5.380031 71 55 96
-2.639706 -0.134268 3.943321 41 50 64
-2.785231 -0.018664 3.844216 162 164 165
-2.887218 0.152648 3.679415 71 76 77
-1.856308 -0.510260 4.308506 52 61 74
-2.787215 0.135974 3.688463 56 61 60
0.482541 -2.144703 5.953134 160 157 166
-2.531178 -0.019607 3.838659 43 49 72
-2.512364 0.006558 3.815395 43 49 68
-2.644899 0.128632 3.684476 51 60 74
-2.458128 0.073368 3.775705 67 70 78
-2.914068 0.403944 3.422962 172 169 178
-2.196694 -0.075050 3.893781 55 60 69
-2.036172 -0.052173 3.870479 40 49 69
-2.331104 0.154451 3.678847 57 62 77
-2.379444 0.192148 3.639980 43 46 51
-2.938576 0.671575 3.152195 70 77 80
-2.278753 0.205144 3.642595 180 182 182
-2.052540 0.063120 3.758566 52 58 71
-2.608123 0.466515 3.345809 39 48 58
0.359276 -1.572206 5.411145 109 50 111
-2.231371 0.449885 3.397681 180 185 186
-2.212164 0.479835 3.379602 167 171 176
-2.445061 0.765836 3.080151 50 53 67
0.620488 -1.338896 5.178763 126 136 136
0.650814 -1.335583 5.173782 120 132 134
0.721977 -1.354870 5.195437 120 132 134
0.786408 -1.009431 4.863819 133 113 155
0.651552 -0.649817 4.486136 208 200 187
1.028237 -0.895269 4.743673 18 75 60
-1.215068 0.622526 3.225045 191 202 206
0.724534 -0.662710 4.501486 210 210 198
-0.799271 0.405209 3.436495 173 175 183
1.162076 -0.905262 4.766837 44 90 71
-0.783067 0.428321 3.414656 134 87 166
1.727096 -1.238482 5.085088 172 181 185
-0.706977 0.431360 3.413458 191 191 209
1.139825 -0.810386 4.669641 26 78 60
-0.673804 0.433357 3.410299 125 178 211
1.710166 -1.165204 5.018106 78 147 186
-0.654009 0.430251 3.410913 168 182 210
1.724243 -1.166454 5.013772 0 23 57
1.698231 -1.143503 5.000377 74 143 182
1.126299 -0.739473 4.585269 22 71 57
1.002043 -0.635350 4.464697 22 82 71
0.914751 -0.501211 3.708727 81 63 56
0.843743 -0.434966 3.597139 67 58 54
1.115170 -0.696101 4.539442 0 37 24
1.042170 -0.644789 4.487001 47 94 78
-0.065523 0.123434 3.553249 21 23 33
-0.536817 0.423630 3.416191 196 185 158
1.173154 -0.696349 4.545082 41 90 70
1.808277 -1.111898 4.957366 12 31 52
1.388001 -0.819123 4.685997 147 111 87
-0.677340 0.572910 3.270216 202 191 161
1.831512 -1.097969 4.944628 103 157 187
-0.487007 0.466242 3.372511 21 30 34
-0.445078 0.442990 3.389731 28 30 40
-0.439210 0.441476 3.403286 182 184 185
1.009689 -0.482984 4.044915 81 72 69
-0.408310 0.455503 3.386220 25 106 67
1.194566 -0.608408 4.456284 39 93 70
1.274855 -0.649782 4.506790 147 104 85
-0.492327 0.543676 3.303618 135 80 167
0.594715 -0.122969 3.241219 57 40 37
0.606755 -0.125196 3.245018 133 124 115
0.610838 -0.112374 3.248505 121 117 112
1.540370 -0.784243 4.659458 46 94 95
-0.530600 0.604795 3.241021 145 83 183
0.601191 -0.100060 3.248912 81 63 56
-0.471177 0.569285 3.270350 175 127 206
-0.340923 0.490096 3.356045 141 89 166
-0.320308 0.482498 3.349845 145 78 177
1.590085 -0.741545 4.606714 179 184 182
1.354222 -0.537201 4.392381 19 71 61
1.754928 -0.792174 4.659733 92 139 123
-0.934188 1.001516 2.865879 193 196 201
1.263822 -0.453563 4.303480 32 81 67
-0.259775 0.564796 3.272707 28 91 171
0.840781 -0.099695 3.928915 149 109 51
0.577461 0.086155 3.335409 71 57 51
-0.625160 0.884958 2.973003 40 14 154
1.605426 -0.571302 4.432203 25 69 63
0.082297 0.451477 3.378568 149 165 178
-0.590546 0.905577 2.938589 156 160 185
-0.586824 0.904101 2.949337 57 25 160
-0.609919 0.929765 2.922512 43 45 163
-0.577387 0.934115 2.917598 52 48 177
0.490954 0.251229 3.346172 12 8 7
1.390935 -0.308184 4.164416 185 185 191
0.690286 0.166133 3.655584 17 109 158
-0.289790 0.835544 3.018157 32 13 152
1.585511 -0.390408 4.249312 49 131 166
-0.210554 0.860493 2.988898 30 13 158
-0.202261 0.882104 2.961315 50 52 177
-0.259552 0.943916 2.909971 87 160 190
-0.865642 1.348699 2.512605 79 88 85
-0.334720 1.015218 2.840041 44 48 160
-0.789208 1.388221 2.470254 42 61 46
-0.380388 1.183355 2.662922 177 180 211
-0.410819 1.219550 2.636759 170 167 213
1.159523 0.202687 3.634570 171 180 170
-0.197379 1.109535 2.752105 53 73 61
0.701776 0.837756 3.005677 15 48 51
0.731895 0.826647 3.015082 175 183 183
0.737944 0.835222 3.014741 24 46 57
0.676570 0.898266 2.955474 70 153 108
0.650747 0.930539 2.924622 51 58 67
0.661877 0.927571 2.922425 36 45 58
0.803802 0.840817 3.008627 30 46 58
0.757430 0.884443 2.972716 25 46 54
0.786366 0.865031 2.986792 58 133 95
0.745945 0.895904 2.949865 138 171 164
0.665136 0.956487 2.889153 173 180 183
0.794091 0.883645 2.966616 20 42 48
1.575751 0.390620 3.472010 137 175 147
1.686949 0.321901 3.535998 37 120 68
0.853220 0.889320 2.956023 155 180 176
0.902977 0.868192 2.977583 47 57 75
0.917814 0.869856 2.984792 40 54 66
1.303860 0.623006 3.218771 48 126 73
1.664110 0.412962 3.438585 48 123 79
0.613534 1.109452 2.739263 187 192 191
0.964716 0.896173 2.952207 37 51 63
0.981804 0.899809 2.952064 40 50 67
0.989469 0.901110 2.948708 32 45 61
0.958785 0.931505 2.943022 38 51 67
1.008911 0.893747 2.953918 149 167 168
0.245290 1.392853 2.456399 31 44 58
0.977629 0.922700 2.928792 36 48 66
0.951385 0.941999 2.909757 131 177 171
1.033762 0.888796 2.956947 32 42 60
0.270708 1.386064 2.471815 164 176 178
0.973590 0.941731 2.919287 156 181 185
0.939900 0.965493 2.889766 129 176 168
0.932964 0.974585 2.877932 139 180 175
0.970889 0.951788 2.899989 133 163 164
1.056337 0.894771 2.951279 169 174 175
1.059015 0.904839 2.949736 49 56 75
0.154703 1.490330 2.370247 164 170 175
0.931129 0.988398 2.861051 29 55 67
0.144327 1.497698 2.349800 48 59 73
0.920675 0.997725 2.854581 36 59 74
0.838809 1.052042 2.800329 40 79 81
1.073620 0.904255 2.947270 174 179 178
0.004070 1.597508 2.264319 39 48 61
1.063828 0.916924 2.936764 36 46 64
0.972845 0.982206 2.872221 7 35 42
0.560277 1.250972 2.611015 172 180 180
0.859638 1.057282 2.800168 44 130 96
0.918511 1.026096 2.829366 49 133 104
0.578449 1.259685 2.599106 157 168 172
0.847630 1.088090 2.774020 23 50 60
0.984677 0.998263 2.858082 23 47 53
0.532728 1.295570 2.565816 174 182 182
0.565661 1.274016 2.585251 35 49 61
0.473815 1.342063 2.517425 40 56 68
0.960460 1.034108 2.830447 12 38 38
0.536850 1.304693 2.550016 44 59 68
0.935666 1.053824 2.801709 133 164 163
0.979337 1.026193 2.828346 138 170 169
0.931783 1.062829 2.795351 22 47 49
0.533248 1.327003 2.534803 168 177 180
0.929180 1.085515 2.771806 21 46 48
0.875612 1.127835 2.728782 137 178 173
0.904810 1.110543 2.749441 38 61 63
0.541492 1.349408 2.511056 29 44 53
1.192656 0.931201 2.917070 29 40 54
1.201504 0.936459 2.916107 137 172 168
0.893865 1.139643 2.712838 154 170 176
0.883098 1.148159 2.705251 39 54 70
1.215168 0.936703 2.912390 138 180 173
1.246195 0.923171 2.928713 49 55 66
0.868065 1.170933 2.687053 48 62 80
0.855631 1.187657 2.672839 31 49 72
0.844088 1.200163 2.667428 31 57 73
1.263219 0.930636 2.917994 42 54 66
0.834076 1.213067 2.643412 22 57 71
1.260896 0.941838 2.918147 134 175 168
0.922456 1.161807 2.693646 139 181 174
1.300109 0.919650 2.933635 176 181 180
1.293590 0.926613 2.930624 38 47 57
1.314344 0.924685 2.927848 44 55 63
0.979165 1.174533 2.681334 47 66 81
0.987622 1.173652 2.681992 168 190 196
1.020334 1.204044 2.658894 20 42 54
1.038864 1.206848 2.650301 28 50 61
1.052551 1.208363 2.655431 37 52 68
1.050798 1.213368 2.648293 44 60 73
1.047733 1.218468 2.642036 124 164 162
1.455257 0.960990 2.901611 42 52 70
0.701694 0.837101 3.019252 34 49 58
1.433324 0.950834 2.906642 36 44 61
-3.366569 -1.985562 5.725729 144 154 164
-3.097249 -1.325740 5.072270 129 97 156
-3.638683 -0.328084 3.462727 130 128 128
-3.104500 -1.256999 4.998140 119 92 155
-4.177731 -0.469500 4.281364 160 160 154
-3.099463 -1.221290 4.991454 127 100 164
-3.508731 -0.698143 4.471313 58 38 85
-3.487402 -0.712639 4.494797 25 19 54
-3.481649 -0.721750 4.517020 149 121 174
-1.684799 -1.957325 5.714519 162 168 179
-3.438453 -0.633941 4.423467 129 93 163
-2.965078 -0.818157 4.577896 33 17 65
-2.767956 -0.978117 4.754703 61 24 116
-2.763235 -0.590089 4.375963 23 21 50
-2.779988 -0.530732 4.323847 159 129 182
-3.808482 0.205922 3.582659 101 119 130
-3.834895 0.228540 3.563576 102 119 128
0.148988 -2.486955 6.286156 79 154 156
0.080896 -2.426877 6.241121 113 74 112
-2.847384 -0.136190 3.951206 50 57 76
-2.859801 -0.035008 3.865159 51 54 68
-2.642767 -0.136473 3.943142 39 46 63
-2.614798 -0.104719 3.918628 43 50 69
-2.568482 -0.123728 3.944780 59 64 63
-2.721871 0.022343 3.787896 46 50 68
-2.786384 0.135997 3.688084 56 61 60
0.502199 -2.174747 6.005984 112 61 121
-2.532679 -0.019907 3.838332 37 43 66
-1.848268 -0.485670 4.284000 58 67 81
-3.151042 0.438417 3.360067 52 56 74
-3.128601 0.426615 3.386549 51 57 70
-2.650494 0.128381 3.710645 168 172 177
-2.521659 0.052467 3.792985 163 166 170
-2.261032 -0.056056 3.880062 53 61 74
-2.784556 0.330228 3.492215 32 39 58
-2.747748 0.380643 3.463088 168 173 182
-2.382372 0.148765 3.709372 185 187 187
0.711935 -1.979024 5.780623 120 73 119
-0.249362 -1.278647 5.083051 64 39 77
-2.227995 0.081086 3.817521 161 163 163
-2.604193 0.398941 3.433905 166 172 171
-2.336097 0.215670 3.636763 61 68 83
-2.321984 0.210735 3.641727 31 38 58
-2.082087 0.060771 3.753631 40 45 54
-2.285819 0.223236 3.619951 178 184 183
-2.518600 0.403600 3.420528 199 203 204
-2.208376 0.478526 3.378167 167 171 176
-2.387927 0.665463 3.171453 65 70 69
0.720846 -1.395534 5.242797 171 179 178
-2.191929 0.612976 3.218590 158 163 166
-2.124245 0.635312 3.204311 41 44 48
-2.137775 0.659033 3.177584 39 48 61
-2.111106 0.688868 3.154819 34 41 56
0.738014 -0.841654 4.682710 25 76 138
0.650556 -0.756435 4.594594 27 67 142
0.639270 -0.706146 4.548061 179 143 79
-1.257123 0.610853 3.243248 87 117 136
0.962162 -0.869259 4.680368 42 97 88
0.989620 -0.869668 4.717320 34 80 68
1.043660 -0.882393 4.729637 157 162 163
-1.230444 0.660250 3.188169 86 124 136
1.134985 -0.932640 4.809547 20 74 57
0.802710 -0.699138 4.540990 197 191 178
-0.791357 0.382783 3.435242 81 84 88
0.828253 -0.706980 4.538287 170 136 83
1.162323 -0.905780 4.765150 47 95 77
-0.771048 0.404343 3.433529 129 71 160
0.841101 -0.681887 4.514551 173 138 70
1.038350 -0.798690 4.646388 23 81 80
1.724845 -1.238942 5.096617 171 183 185
0.894884 -0.663678 4.504388 184 190 179
-0.719467 0.429450 3.400390 139 70 175
-0.709451 0.432173 3.416953 186 184 203
0.973879 -0.646659 4.478795 39 95 100
0.968676 -0.552942 3.786257 78 62 56
1.001774 -0.636603 4.467344 22 82 71
1.176054 -0.710249 4.575262 50 107 82
1.222675 -0.728398 4.581085 164 123 100
-0.659473 0.536390 3.307376 187 180 153
1.348398 -0.806343 4.666685 144 107 87
1.052400 -0.579948 4.427426 26 89 93
1.091024 -0.603267 4.448753 35 90 73
-0.448252 0.430842 3.408123 64 73 82
-0.481911 0.455737 3.384078 176 178 179
1.288446 -0.729420 4.593138 193 195 189
-0.556343 0.520239 3.324828 171 177 176
1.125911 -0.598722 4.442334 33 87 74
-0.417427 0.442297 3.388620 176 183 180
1.817672 -1.053861 4.912369 85 153 188
-0.445867 0.464892 3.380825 180 182 183
-0.445025 0.477079 3.366679 40 43 51
-0.405305 0.454974 3.384519 28 107 63
-0.371501 0.433915 3.401617 33 116 61
-0.411211 0.476593 3.367225 30 109 66
0.803460 -0.322858 4.110266 153 153 153
-0.494866 0.546233 3.305728 146 90 179
0.608018 -0.126009 3.247946 130 123 114
0.565298 -0.091429 3.219153 69 60 57
-0.332365 0.455279 3.378091 170 170 176
1.103398 -0.503382 4.352664 27 82 65
0.615071 -0.116574 3.244519 125 121 116
-0.511313 0.586134 3.265600 145 76 179
-0.529713 0.605292 3.240926 145 83 183
0.601799 -0.101380 3.247824 81 60 52
-0.465167 0.586746 3.251356 138 63 179
1.195108 -0.519382 4.385602 38 93 74
1.168649 -0.496721 4.342328 34 86 69
1.254186 -0.548740 4.401336 18 80 90
-0.478678 0.608266 3.240647 188 173 200
1.272995 -0.559768 4.415213 46 99 86
1.197450 -0.503559 4.350850 173 177 171
-0.426959 0.613254 3.224248 147 83 183
-0.791553 0.878096 2.971057 33 19 154
-0.100876 0.441678 3.390608 45 107 177
-0.764984 0.889609 2.995831 37 17 153
1.262654 -0.452666 4.307284 33 79 66
-0.286140 0.609446 3.229563 33 99 170
1.621701 -0.646768 4.525369 26 74 56
1.829994 -0.709699 4.565014 187 197 181
1.261747 -0.324378 4.166969 157 182 186
-0.575977 0.934319 2.917445 52 48 177
-0.416947 0.862884 2.999076 34 6 159
0.444783 0.291098 3.298184 13 8 5
-0.449013 0.886456 2.959402 89 102 178
0.480952 0.280230 3.318123 15 7 7
-0.210708 0.858955 2.987709 33 11 160
-0.651850 1.191373 2.672683 42 17 155
-0.260532 0.942774 2.910668 79 153 181
-0.251688 0.952617 2.904318 72 56 173
-0.501853 1.155897 2.712417 69 139 179
1.164264 0.076903 3.772442 43 131 85
-0.657177 1.282684 2.570551 44 42 155
-0.509513 1.198466 2.657502 112 115 119
-0.748374 1.384953 2.461714 39 67 38
-0.669216 1.339435 2.523317 159 161 161
-0.590355 1.296343 2.567408 54 70 146
0.395819 0.650008 3.186181 35 121 191
-0.450879 1.225844 2.626150 170 175 176
-0.578903 1.323075 2.527372 45 77 52
-0.360240 1.181690 2.676826 58 74 116
-0.123562 1.047857 2.785007 41 53 41
-0.197212 1.110147 2.753596 55 78 63
-0.355797 1.298306 2.557940 103 108 109
-0.008740 1.188111 2.668087 132 140 140
0.650999 0.859197 3.006060 47 54 57
0.668397 0.878877 2.968295 36 49 63
0.738892 0.834972 3.012674 24 49 59
0.663927 0.899218 2.942444 40 50 67
0.673834 0.899998 2.960778 69 153 105
0.675207 0.909390 2.937161 161 165 166
0.685505 0.906090 2.952329 47 59 69
0.660789 0.925886 2.920961 34 43 57
0.805096 0.840931 3.006828 33 47 59
0.760718 0.869384 2.974214 14 38 36
0.721130 0.900792 2.954222 21 42 44
0.837292 0.846908 3.002574 27 46 54
0.793970 0.883654 2.969312 23 42 49
0.869340 0.853644 2.996570 34 50 63
0.827580 0.889319 2.961033 28 42 48
0.885607 0.868413 2.974932 132 160 160
1.271823 0.618656 3.229019 48 129 90
0.902102 0.869025 2.982615 36 52 68
1.333386 0.593740 3.258276 37 120 65
1.685927 0.402163 3.452773 37 128 72
0.955671 0.896747 2.963338 34 47 63
1.008794 0.895466 2.953264 135 162 159
0.976118 0.922303 2.929957 40 51 71
1.031299 0.893390 2.961380 28 42 60
1.027682 0.898712 2.955148 31 46 65
0.322634 1.358032 2.494989 36 48 60
0.965903 0.943373 2.907345 37 54 67
0.187515 1.448867 2.410485 159 168 171
0.975630 0.939510 2.916327 156 181 185
0.940638 0.963893 2.888617 129 176 168
0.933270 0.974489 2.875737 129 173 167
-0.073599 1.627441 2.231075 42 50 57
0.941815 0.972634 2.881365 24 53 62
0.954163 0.965526 2.885764 35 57 69
1.059127 0.906134 2.950237 49 56 76
0.899381 1.011156 2.850780 130 177 169
0.932177 0.990225 2.863096 22 45 60
0.075796 1.546423 2.293215 167 175 182
0.916454 1.007324 2.843471 25 46 61
0.863004 1.044217 2.804996 37 61 73
0.886210 1.029848 2.820546 25 54 63
0.896412 1.036852 2.821361 35 124 85
0.840507 1.077623 2.791274 28 54 66
0.860855 1.068233 2.789294 50 139 100
0.586602 1.247019 2.611910 165 176 180
0.983069 0.997791 2.858767 27 51 57
0.845556 1.088891 2.777375 36 58 69
0.980182 1.016586 2.835376 26 47 55
0.870868 1.090123 2.764558 97 158 144
0.963753 1.030789 2.826999 12 40 41
0.951487 1.039309 2.816773 31 51 56
0.503235 1.330434 2.527156 189 194 193
0.861961 1.099155 2.755026 28 50 62
0.532480 1.316295 2.539941 42 57 66
0.930296 1.063093 2.795593 27 52 54
0.545346 1.312394 2.546312 146 155 158
0.533405 1.327205 2.534108 169 178 181
0.508997 1.345199 2.513774 25 42 55
0.528022 1.336403 2.525987 152 164 168
0.874857 1.113081 2.741054 24 40 56
0.900996 1.100443 2.765654 66 154 114
1.183540 0.920224 2.939025 172 177 175
0.928420 1.084525 2.771877 21 46 48
0.874831 1.127707 2.728278 126 170 164
0.905294 1.109249 2.749046 39 60 62
0.917298 1.100255 2.749157 37 58 60
1.192497 0.925602 2.933779 35 44 54
0.932769 1.091807 2.762641 133 170 166
0.899052 1.116499 2.737339 147 182 178
0.542922 1.348114 2.510238 29 44 53
0.890171 1.124352 2.726240 30 42 60
1.202026 0.935847 2.914344 131 168 164
1.224604 0.934466 2.927001 41 55 67
0.867267 1.171052 2.686888 43 59 76
1.234260 0.935081 2.908147 128 172 165
0.857057 1.186046 2.671044 31 49 72
0.865325 1.183471 2.679683 130 177 174
1.260709 0.932506 2.922573 25 39 51
0.922306 1.161462 2.692010 155 199 192
0.947690 1.163669 2.700156 32 46 65
1.020661 1.205859 2.661922 23 42 55
1.423695 0.957523 2.905272 33 46 60
-3.324095 -1.285045 5.034312 112 68 169
-2.881649 -1.126744 4.904503 165 159 182
-0.395066 -2.791615 6.588116 13 88 56
-1.613377 -1.799017 5.540462 31 95 159
-2.883939 -0.784821 4.568910 45 29 76
-3.088683 -0.488541 4.289441 173 170 185
-2.855700 -0.570110 4.357199 31 31 55
-1.978286 -1.166251 4.939044 173 175 169
-1.970870 -1.076280 4.868998 173 175 163
-1.636439 -1.188521 4.964383 162 151 91
-2.740861 0.044526 3.772196 55 62 81
-3.153236 0.407258 3.396997 166 170 171
0.361402 -2.067883 5.928634 120 63 131
-2.546556 0.052322 3.774036 37 41 60
-2.302420 -0.014366 3.837525 49 54 69
-0.337246 -1.293058 5.071719 75 50 88
-3.032601 0.600049 3.233663 169 171 179
-2.920946 0.539864 3.278083 80 84 89
-3.005961 0.627120 3.208690 180 183 187
-2.019116 -0.027233 3.843618 33 41 58
-2.136013 0.063201 3.751852 169 171 171
-2.251928 0.624719 3.222343 48 51 65
-2.125700 0.635956 3.205161 41 44 48
-2.112354 0.687279 3.153785 39 46 61
-2.105272 0.714744 3.130262 43 50 65
-1.341856 0.649785 3.204066 84 120 136
-1.256977 0.614963 3.248687 86 120 136
-1.245894 0.637844 3.217476 100 134 150
1.137857 -0.930776 4.800585 29 81 64
-0.802474 0.388652 3.445527 73 76 80
-0.774499 0.432945 3.411425 145 81 180
-0.730654 0.434542 3.405832 136 64 170
0.816753 -0.435844 3.567929 88 78 60
1.037829 -0.656812 4.501573 8 45 41
1.784506 -1.120086 4.964860 19 22 37
1.440196 -0.883759 4.745263 142 104 80
1.385089 -0.819820 4.693673 149 113 89
-0.597433 0.513236 3.329963 176 177 173
-0.485901 0.451330 3.385847 174 179 178
1.214381 -0.676996 4.536674 140 105 92
1.125776 -0.614305 4.475950 33 84 70
1.009044 -0.485604 4.036759 81 73 73
-0.518263 0.554741 3.286922 139 82 173
-0.420584 0.487733 3.355634 175 180 181
-0.520602 0.568294 3.269919 182 183 187
-0.345487 0.457553 3.384216 178 183 181
1.212830 -0.561480 4.418303 45 101 80
-0.329305 0.484386 3.353564 131 69 163
-0.516391 0.631479 3.216368 140 66 172
-0.477022 0.605138 3.238978 195 180 208
-0.441774 0.584546 3.264482 192 185 198
-0.782113 0.881282 2.986162 170 179 192
1.555372 -0.658202 4.513221 19 71 61
0.616807 -0.018204 3.857526 39 110 154
1.722416 -0.725461 4.588609 164 165 169
-0.058816 0.494449 3.340598 28 104 180
1.574719 -0.587789 4.462760 32 77 68
1.669988 -0.651086 4.501660 170 178 171
-0.032156 0.502614 3.337849 31 98 177
0.423330 0.256107 3.356846 143 130 128
1.796337 -0.651382 4.509427 28 76 58
-0.408946 0.861129 2.997143 42 19 165
-0.326916 0.841039 3.005721 41 18 162
1.638129 -0.453151 4.318935 41 119 162
-0.271400 0.946315 2.895789 47 46 174
0.513570 0.438844 3.394097 34 116 164
0.320038 0.664929 3.175291 32 132 180
0.462165 0.659738 3.176986 25 120 176
-0.267414 1.270107 2.587069 110 118 118
0.040517 1.097191 2.756045 105 128 130
0.699719 0.837561 3.012860 32 55 63
0.664169 0.878805 2.968480 38 51 67
0.679865 0.870517 2.979161 45 128 89
0.736362 0.837602 3.015372 21 45 57
1.491725 0.347457 3.490421 176 183 176
0.757621 0.828656 3.015715 167 172 171
0.675253 0.894898 2.960787 38 120 77
1.338907 0.471907 3.378216 169 180 172
0.743384 0.873677 2.970031 106 189 134
0.744366 0.888512 2.959760 29 50 51
0.741654 0.899155 2.948096 127 162 158
0.774716 0.881938 2.967986 122 159 155
0.794660 0.881953 2.967430 23 42 49
1.812981 0.240208 3.613550 47 127 80
0.853041 0.863878 2.977160 44 123 72
0.905193 0.862133 2.979409 32 48 61
1.634742 0.403964 3.447088 42 124 71
1.304949 0.620548 3.221892 40 127 69
1.321287 0.615003 3.237775 50 135 77
0.933059 0.879287 2.975470 36 44 67
0.971612 0.922001 2.930193 37 49 67
0.237758 1.407416 2.448586 154 168 167
0.204948 1.433285 2.431268 180 195 197
-0.102086 1.633251 2.219555 43 56 72
0.189739 1.451193 2.409567 162 173 177
0.316989 1.366582 2.485631 154 170 169
0.153898 1.476068 2.371758 37 46 60
0.930517 0.975240 2.873594 128 172 166
0.366920 1.347708 2.520245 36 51 67
0.956337 0.966569 2.882819 26 48 59
0.938785 0.984499 2.855470 27 48 63
0.084093 1.541229 2.308774 171 174 178
0.844842 1.054839 2.804770 34 63 70
0.958848 0.980543 2.871033 38 128 93
1.076570 0.904997 2.949846 177 182 183
0.119452 1.526186 2.333580 39 49 66
0.852137 1.055937 2.816016 32 59 69
0.916861 1.009011 2.844445 36 55 70
0.898326 1.025890 2.828796 24 51 61
0.977967 0.974423 2.872671 23 44 52
0.035148 1.585521 2.259116 172 183 187
0.897046 1.038657 2.816314 40 128 88
0.587642 1.247042 2.619619 155 166 170
0.851151 1.073793 2.777503 26 44 61
0.982433 0.997523 2.858344 25 47 52
0.911942 1.042482 2.803006 38 124 82
0.581528 1.261346 2.593732 155 166 170
0.558383 1.279288 2.588243 36 49 63
0.925737 1.038981 2.812709 25 45 50
0.951103 1.023921 2.824426 36 125 82
0.479058 1.338345 2.518737 39 52 68
0.870828 1.086818 2.767560 77 151 125
0.979167 1.017601 2.836644 21 43 49
0.954855 1.035832 2.814113 31 53 58
0.863345 1.099078 2.754910 25 47 59
0.900327 1.094836 2.762885 42 131 87
0.876661 1.115514 2.745552 27 46 59
0.928192 1.083554 2.771504 24 48 48
0.911115 1.102706 2.745440 43 56 64
1.173781 0.936035 2.914494 126 170 163
0.891566 1.127317 2.724607 29 43 61
0.881930 1.147636 2.704149 35 51 67
0.602477 1.335341 2.513144 126 169 166
0.893848 1.156578 2.712875 131 171 169
0.928394 1.155269 2.706375 38 57 72
0.946312 1.152089 2.708262 129 170 165
0.961606 1.174415 2.687096 26 41 57
-2.553388 0.768679 3.064717 97 102 103
-0.324185 0.550646 3.287603 168 128 199
1.706580 -0.660973 4.502022 163 170 167
0.459397 0.244856 3.341204 16 12 11
-0.505802 1.206226 2.655169 170 175 178
1.007901 1.183191 2.676400 133 169 169
-3.431151 -0.666756 4.446804 167 158 179
-1.978922 -1.169885 4.950784 171 175 170
-2.784782 -0.590910 4.382955 28 29 50
-1.630101 -1.314336 5.078526 171 176 174
-1.969120 -1.073960 4.869109 170 176 165
-2.748052 -0.166668 3.940650 51 58 73
-2.770186 -0.014092 3.817715 160 162 163
-2.398719 -0.115303 3.941399 83 88 87
0.388230 -2.057821 5.859837 115 56 124
-2.713406 0.120851 3.693349 39 47 64
-2.502067 0.009597 3.849429 171 175 176
-2.261052 -0.088046 3.908079 175 180 179
-2.584484 0.387599 3.428225 88 93 92
-2.403344 0.667161 3.174070 68 73 72
-2.447402 0.777858 3.087947 32 39 54
-2.353792 0.870523 3.010975 40 45 60
0.679701 -0.937539 4.754292 40 84 145
1.078540 -0.959875 4.803964 25 78 64
0.991973 -0.874905 4.703043 21 75 62
0.948697 -0.780813 4.656806 63 120 111
1.148248 -0.760206 4.606911 171 177 166
1.051007 -0.653179 4.443046 18 61 52
1.022592 -0.640320 4.521808 33 86 72
1.090859 -0.669130 4.519780 168 172 167
1.501916 -0.837316 4.703270 167 124 97
0.976369 -0.434352 4.006804 7 5 4
-0.351801 0.462278 3.387119 179 183 178
-0.761774 0.865919 2.970187 167 177 184
1.333373 -0.526868 4.399366 181 179 178
0.578902 -0.016768 3.851235 126 131 134
1.534309 -0.635288 4.469779 32 82 78
0.584561 0.019794 3.333644 173 155 154
-0.279812 0.637017 3.209609 18 86 163
0.422645 0.226030 3.337905 18 14 13
0.450741 0.221342 3.351827 188 173 170
0.385624 0.275250 3.309901 17 13 12
0.484928 0.249577 3.331536 12 8 7
-0.262980 0.827796 3.022874 177 175 181
-0.242047 0.933824 2.924316 48 50 168
-0.569946 1.177275 2.669148 181 184 188
0.399127 0.630443 3.141151 160 173 181
0.365864 0.694873 3.142444 30 128 182
-0.119096 1.066555 2.777718 179 180 176
-0.440512 1.350691 2.513195 160 165 166
0.661168 0.902710 2.950337 37 47 64
0.771548 0.842900 3.003186 29 46 55
1.812311 0.243891 3.619531 38 121 69
0.862844 0.878928 2.965162 40 55 71
1.303496 0.621289 3.228191 42 129 71
0.912874 0.881744 2.969849 133 182 174
0.171585 1.443418 2.427473 59 68 81
0.991683 0.918501 2.942956 128 165 161
1.010413 0.902722 2.946010 126 167 160
0.187987 1.439006 2.420525 53 62 76
0.956145 0.969456 2.883529 22 44 55
0.844133 1.056799 2.807510 35 61 73
1.062306 0.912497 2.935581 40 47 66
0.033949 1.590045 2.283393 47 60 74
0.898221 1.028101 2.828544 25 51 58
0.454003 1.324158 2.517201 39 49 66
0.868621 1.063503 2.791479 56 144 104
0.955480 1.039660 2.822300 34 57 59
0.598837 1.243844 2.469843 150 162 162
0.882745 1.108157 2.740505 28 53 63
0.910635 1.106285 2.752644 48 62 68
0.544266 1.346968 2.509627 29 47 58
0.909458 1.120538 2.738374 134 172 166
1.246401 0.917420 2.934515 164 169 170
0.578879 1.348398 2.505922 20 38 49
0.941827 1.172878 2.683871 121 172 164
-2.883522 -1.491507 5.254289 162 166 171
-2.853393 -0.843182 4.631191 26 21 52
-1.959570 -1.176799 4.956251 170 175 173
-0.524148 -1.587229 5.320770 68 54 96
0.103430 -1.999390 5.884980 171 173 173
0.124891 -1.606596 5.390081 131 68 140
-2.335691 0.198516 3.640116 65 70 91
-2.370034 0.196286 3.739331 58 63 84
-0.007243 -1.236825 5.065063 175 177 177
-2.102292 0.668113 3.137141 78 85 100
0.869323 -0.863089 4.723842 73 139 190
-0.807713 0.403873 3.428173 51 57 64
1.055180 -0.589678 4.496345 37 94 93
1.536941 -0.835866 4.715534 176 179 177
-0.422368 0.593284 3.252300 180 185 184
0.636006 0.022628 3.841514 175 180 179
-0.240009 0.606958 3.252143 176 181 182
1.448760 -0.515941 4.389678 22 114 161
1.666426 -0.660022 4.538844 166 171 169
1.707361 -0.673433 4.478889 170 175 173
-0.439643 0.846923 3.004345 185 191 190
1.640996 -0.478322 4.368779 49 126 165
0.336129 0.613925 3.216689 184 191 194
-0.739153 1.363912 2.508220 176 183 176
-0.205262 1.054533 2.809994 49 77 54
0.706695 0.916633 2.981526 27 49 47
0.975889 0.873421 2.968900 169 174 173
0.846439 1.058105 2.803775 38 65 75
0.899836 1.164102 2.695900 136 180 173
0.931962 1.157489 2.701429 35 51 68
0.893902 1.135568 2.719454 90 107 116
-2.636511 -1.214538 4.996699 167 172 173
-2.757061 -0.980081 4.746465 58 21 113
-2.531623 -1.110442 4.862397 109 72 168
-0.505106 -2.473531 6.210895 43 122 89
-0.309208 -2.352774 6.109392 41 119 78
-1.997870 -0.977376 4.771750 163 153 89
-0.576559 -1.258062 5.033988 173 177 178
-2.103927 0.083623 3.711109 172 177 176
0.362802 -1.591361 5.430781 128 66 136
-2.082754 0.721633 3.094126 54 61 76
-0.683872 0.583445 3.263275 183 150 81
0.400864 0.229952 3.331764 16 14 13
-0.344404 1.026197 2.916056 172 177 180
-0.173543 1.049950 2.798282 83 112 87
1.170091 0.282749 3.561387 183 188 186
0.194651 1.422689 2.387497 41 54 68
0.516461 1.338335 2.610323 34 47 61
0.052753 -1.520703 5.407079 174 179 178
1.588416 -0.785097 4.650887 33 82 68
0.922989 -0.256597 4.046241 48 40 23
1.684006 -0.706476 4.523791 179 184 182
0.650973 -0.004859 3.775603 169 173 174
0.643413 0.124308 3.679023 40 70 111
-0.590807 1.002210 2.844496 174 177 182
1.161614 0.295476 3.558589 174 179 177
0.909387 0.976088 2.833015 126 175 167
0.815153 -0.145842 3.967257 68 81 83
1.665688 -0.698095 4.605137 176 179 177
-0.744268 0.492173 3.351736 51 76 72
0.613740 -0.241415 3.298412 110 111 107
0.617910 -0.236570 3.303295 41 41 35
0.619031 -0.223405 3.291728 114 113 109
1.315783 -0.379129 4.226841 67 53 117
1.309487 -0.356576 4.202746 65 64 108
1.373825 -0.427984 4.273956 64 61 116
1.337263 -0.333008 4.182069 73 57 128
1.328919 -0.312464 4.160533 56 61 110
1.429165 -0.296369 4.146487 47 49 103
1.492191 -0.381057 4.234169 67 55 121
-3.682994 -0.270268 3.426414 136 141 139
-2.793812 -3.463619 7.136824 71 62 119
-4.124730 -0.565505 4.356068 126 145 126
-4.272009 0.308199 3.500637 5 27 25
-3.246186 -1.814823 5.579371 0 29 58
-3.094065 -1.893620 5.620656 0 19 51
-3.522097 -0.782600 4.563771 35 31 67
-3.481994 -0.771097 4.530673 13 17 42
-2.871491 -0.778303 4.552924 28 29 73
-2.803974 -0.604558 4.413939 25 28 59
-2.873544 0.376582 3.259870 142 169 165
-1.834845 -1.936757 5.712152 30 93 143
-2.760163 0.121081 3.692672 142 169 165
-1.662393 -1.821918 5.615388 13 93 152
-2.418114 0.024646 3.755619 20 48 55
-2.409922 0.039034 3.772276 32 55 63
-2.616365 0.497411 3.347561 44 74 75
-2.290540 -0.087212 3.896658 20 45 41
-2.564344 0.473835 3.344077 14 44 49
-2.263924 0.217087 3.604791 143 169 169
-2.184167 0.066202 3.743314 23 45 51
-2.241224 0.229147 3.583886 48 75 71
-2.209090 0.448282 3.369060 26 48 59
-0.299458 -2.327807 6.101419 130 165 155
-0.276603 -2.323931 6.096726 46 98 81
0.112462 -1.849563 5.657335 67 64 143
0.322264 -1.822429 5.639506 54 53 119
0.342452 -1.817609 5.637224 134 141 174
-0.481090 0.455481 3.381941 151 174 170
-0.438469 0.423129 3.398048 45 74 81
-0.420111 0.437994 3.410840 44 122 91
-0.419730 0.478527 3.351655 143 170 166
-0.444160 0.866001 2.994576 111 157 188
-0.629056 1.206191 2.636416 35 66 129
0.597860 -0.276578 3.314583 122 121 117
-0.566899 1.186593 2.695779 51 44 141
0.630599 -0.831713 4.668230 18 56 128
0.607060 -0.266316 3.313705 45 44 40
0.625901 -0.209129 3.295638 49 48 44
0.906680 -1.117663 4.947506 74 85 123
0.619567 -0.172328 3.273383 50 45 36
-0.435249 1.189734 2.659614 44 69 111
0.766526 -0.826667 4.664437 153 185 191
-0.002254 0.500976 3.335307 16 89 157
0.691084 -0.674834 4.525849 142 127 64
0.965222 -1.069570 4.907253 155 176 184
-0.382016 1.252424 2.619415 53 77 101
0.786491 -0.609968 4.451155 122 125 80
-0.209834 1.094584 2.752595 140 164 156
-0.129641 1.036248 2.774441 113 147 123
1.046252 -0.884767 4.723599 124 158 148
1.052750 -0.858367 4.705050 140 173 169
0.478538 0.280639 3.322205 2 0 0
1.037740 -0.657945 4.496556 0 21 5
1.139480 -0.757687 4.597264 121 162 141
1.160875 -0.735450 4.585630 28 83 56
1.001862 -0.469796 4.676595 144 184 159
1.198119 -0.606174 4.450852 23 87 52
1.140562 -0.485222 4.323801 30 80 62
1.272132 -0.463157 4.313805 142 183 168
1.259321 -0.435875 4.283187 29 77 65
1.281605 -0.441134 4.282907 37 88 68
1.350958 -0.532133 4.368394 140 175 171
1.375605 -0.521423 4.367330 37 98 70
1.262140 -0.304184 4.153708 13 105 146
1.772058 -1.107328 4.938927 71 80 90
1.770090 -1.064482 4.899251 0 14 36
1.583224 -0.747341 4.595291 23 72 58
1.672855 -0.831906 4.679142 20 78 54
1.352428 -0.301550 4.150724 88 89 140
1.843736 -1.075234 4.914278 1 19 36
1.656215 -0.759399 4.608688 16 67 47
1.692613 -0.762928 4.610058 18 64 51
0.252731 1.614318 2.214782 12 47 51
1.444079 -0.299278 4.144022 148 166 177
1.734498 -0.655641 4.499943 0 30 16
0.502820 1.353008 2.519199 18 49 58
1.748825 -0.587496 4.436505 24 73 53
0.904002 1.108941 2.730566 125 165 163
0.936579 1.391842 2.451796 138 190 190
1.090241 1.444172 2.401479 105 158 155
1.243763 -0.465743 4.309310 44 99 82
-3.711730 -0.194522 3.365588 5 5 5
-3.699100 -0.222482 3.392462 1 4 2
-3.687249 -0.247453 3.417932 0 1 1
-3.627661 -2.095439 5.832943 5 12 31
-4.272871 0.307455 3.499871 1 22 20
-3.945934 0.319279 3.313232 39 68 65
-4.205339 0.400451 3.405886 48 77 74
-2.640271 -2.839916 6.548839 103 102 52
-3.567774 -0.752921 4.519720 17 18 46
-3.565855 -0.775271 4.589114 20 22 52
-3.485900 -0.741301 4.509080 11 18 37
-3.171539 -1.302392 5.066032 93 104 132
-3.395600 -0.567781 4.351344 147 163 176
-3.722741 0.184411 3.635092 63 108 119
-2.423698 -2.138210 5.906058 72 46 110
-2.449514 -2.016785 5.786053 56 43 99
-2.042217 -2.530797 6.275797 61 113 106
-2.871805 -0.779650 4.554627 28 29 73
-3.010121 -0.477659 4.262744 95 98 153
-2.796494 -0.841617 4.602479 15 20 53
-2.803589 0.405892 3.189115 136 162 162
-3.093392 0.521336 3.309991 136 163 160
-2.984704 0.388108 3.443614 119 140 148
-2.699380 -0.004555 3.802739 32 51 64
-2.726144 0.043081 3.761754 33 54 62
-2.573734 -0.090266 3.899792 128 157 154
-2.659102 0.103676 3.711590 13 32 45
-2.658854 0.127250 3.688923 16 39 47
-2.628617 0.097414 3.720491 136 163 160
-2.535559 -0.045085 3.848118 134 162 162
-1.662216 -1.821027 5.613219 13 93 152
-2.813045 0.495123 3.331475 20 41 49
-1.552332 -1.934290 5.731251 115 159 188
-2.666492 0.407753 3.420575 79 106 102
-2.411629 0.065128 3.748559 45 67 79
-2.346654 0.118395 3.698963 140 162 160
-1.253458 -1.995867 5.781482 36 97 147
-2.348330 0.158622 3.660779 148 171 167
-2.300004 0.127204 3.687831 31 50 63
-2.321118 0.172159 3.644640 27 47 58
-2.305843 0.151540 3.666353 34 54 65
-2.451273 0.519809 3.311719 29 50 58
-1.855556 -0.509258 4.305429 39 66 70
-2.187853 0.263143 3.558593 55 84 81
-1.403510 -1.141322 4.940965 116 133 69
-2.239314 0.620904 3.217262 26 47 55
-2.207102 0.599081 3.234247 24 47 55
-2.176885 0.554312 3.277476 25 51 58
-2.179804 0.595443 3.243566 138 166 166
-2.201012 0.847252 3.002937 36 57 65
-0.789029 -1.550640 5.356433 65 67 98
-0.726224 -1.609406 5.425966 53 58 89
-0.283166 -2.109109 5.909124 94 68 122
-0.545617 -1.632796 5.458810 43 44 78
-1.330156 0.641844 3.195445 72 121 131
-1.008997 0.997804 2.869092 122 171 157
-0.604493 0.538479 3.290167 152 136 69
-0.516855 0.433583 3.395455 146 138 78
-0.781313 0.884098 2.981032 117 157 176
-0.503657 0.445966 3.386060 167 196 170
-0.846974 1.047242 2.811282 44 67 129
-0.519289 0.556187 3.284313 95 66 151
-0.442898 0.438734 3.385276 15 31 44
-0.415328 0.437376 3.409090 31 118 80
-0.687856 1.002577 2.852461 79 147 190
-0.433877 0.575111 3.257436 187 190 211
-0.606161 0.875279 2.976159 130 163 172
-0.623341 0.907892 2.950882 32 30 150
-0.614685 0.950537 2.897940 46 70 136
-0.780471 1.379972 2.464456 37 75 47
-0.741813 1.326416 2.537948 27 69 38
-0.761919 1.371535 2.490181 25 66 35
-0.746199 1.349966 2.528116 46 82 60
-0.758368 1.389603 2.465746 29 67 39
-0.633595 1.193915 2.685986 29 44 117
0.488838 -0.678705 4.516291 148 141 78
-0.256198 0.615225 3.243545 122 169 167
0.590806 -0.285748 3.306431 34 29 26
0.598117 -0.277163 3.316147 121 122 118
-0.563660 1.184132 2.694264 51 44 141
0.463195 -0.555811 4.400129 139 158 139
0.606960 -0.266227 3.314401 45 44 40
-0.597219 1.328094 2.550579 136 173 165
-0.623945 1.382065 2.486598 80 114 90
-0.611242 1.365584 2.497224 23 64 33
0.528687 -0.566939 4.407714 160 183 161
0.550802 -0.560354 4.397417 145 128 61
0.898503 -1.140092 4.976341 103 115 139
-0.237094 0.829879 3.010149 28 43 135
0.729038 -0.807997 4.639330 147 186 195
0.616529 -0.165536 3.261381 108 114 103
0.660163 -0.669223 4.507955 155 177 165
0.757850 -0.790917 4.629789 20 60 125
0.695090 -0.676461 4.519116 152 137 74
-0.370214 1.169686 2.665185 123 154 187
-0.219749 0.925338 2.914788 45 69 145
-0.364492 1.176986 2.691539 118 145 159
-0.399948 1.241649 2.627043 36 49 111
-0.315395 1.109325 2.737853 41 70 139
0.078905 0.453086 3.380046 121 153 164
-0.360778 1.218646 2.632822 99 131 166
-0.373715 1.236683 2.630044 96 147 179
-0.372520 1.243953 2.614501 54 79 111
0.875351 -0.848733 4.689188 20 52 127
-0.229786 1.072014 2.775747 27 70 49
-0.199087 1.035336 2.806166 31 72 51
0.948114 -0.548005 3.727634 58 58 44
0.370290 0.273741 3.318068 9 10 8
0.989746 -0.883229 4.721273 0 43 30
0.924895 -0.766939 4.608333 0 44 35
0.437271 0.216811 3.349792 155 156 146
0.896611 -0.674552 4.532815 142 130 60
-0.164628 1.120951 2.745562 36 72 42
1.111054 -0.962901 4.799021 42 98 75
1.023492 -0.794258 4.621387 134 168 161
1.047270 -0.836949 4.675967 146 181 177
1.037897 -0.816088 4.651608 143 181 175
0.469255 0.289459 3.311569 8 8 8
1.029464 -0.637489 4.483305 26 82 61
1.127584 -0.771218 4.615755 27 85 60
1.089408 -0.676403 4.520936 132 161 145
1.141667 -0.758319 4.596517 124 163 142
1.119546 -0.683927 4.523798 25 77 59
1.043904 -0.556658 4.409143 18 78 84
1.161108 -0.734709 4.584426 26 81 56
1.073657 -0.563071 4.403685 24 85 59
1.148976 -0.685530 4.532145 19 68 52
1.080669 -0.540622 4.385947 137 174 154
1.132014 -0.619127 4.461539 16 77 57
0.865308 -0.138022 3.974727 79 80 38
0.857313 -0.116977 3.951112 104 97 47
1.145988 -0.594153 4.436187 131 162 153
1.165207 -0.614268 4.463934 23 83 59
-0.154671 1.655436 2.171066 21 50 55
1.213302 -0.541304 4.388020 20 78 53
1.390675 -0.820787 4.674110 108 87 59
1.243206 -0.524683 4.395513 26 83 92
1.229307 -0.458462 4.312407 18 79 75
1.307198 -0.550297 4.388484 135 170 156
1.281577 -0.505828 4.353101 16 76 52
1.288021 -0.512994 4.366792 134 166 147
1.272206 -0.464826 4.312528 139 175 163
1.258452 -0.436442 4.284035 31 81 69
1.703482 -1.117053 4.946318 60 130 167
0.079017 1.548994 2.312884 152 182 183
0.069958 1.570328 2.294081 11 38 48
1.359462 -0.542342 4.399419 16 77 49
1.751259 -1.178377 5.013190 10 28 45
0.128626 1.483860 2.377024 145 174 171
0.117253 1.527671 2.334775 18 47 54
0.161485 1.463558 2.399188 20 47 57
0.159777 1.490007 2.332332 121 152 151
1.262549 -0.305227 4.153540 12 106 149
0.202942 1.433117 2.434855 155 187 186
1.327091 -0.338994 4.183646 145 171 171
1.455235 -0.529535 4.388233 7 113 154
1.319702 -0.287898 4.133736 65 64 120
1.802789 -1.062292 4.898547 0 24 41
1.559336 -0.654769 4.505924 0 19 5
1.673007 -0.832121 4.678383 22 80 56
1.594261 -0.653712 4.502224 0 48 32
0.205500 1.615422 2.231038 13 49 55
1.669695 -0.755601 4.601095 144 176 165
0.240805 1.594609 2.239058 14 45 54
1.691682 -0.762968 4.612300 18 64 51
0.232290 1.618650 2.215931 13 45 51
1.501872 -0.443176 4.298999 17 107 148
0.248951 1.604102 2.230988 13 42 56
1.701868 -0.754123 4.600639 137 168 165
1.713564 -0.749318 4.594364 135 171 165
1.726120 -0.735269 4.583396 126 160 159
0.775137 0.833214 3.006013 25 50 60
1.693710 -0.641095 4.491120 23 76 56
1.722500 -0.676165 4.508888 136 170 164
1.665923 -0.561883 4.406803 146 177 168
0.549567 1.291091 2.557753 16 45 50
1.821039 -0.742853 4.597082 18 72 37
1.637950 -0.429265 4.276894 27 119 154
0.858719 0.883563 2.966633 14 40 46
0.900511 0.844570 2.986178 144 171 168
0.648587 1.343989 2.506855 1 43 50
0.915989 1.030510 2.815901 0 30 31
1.023826 0.877568 2.965569 22 44 56
0.680746 1.493399 2.335324 32 78 85
0.687010 1.515018 2.334382 100 159 155
0.935570 1.144472 2.700270 26 55 69
0.723383 1.505679 2.327865 97 164 157
0.737154 1.506007 2.312912 16 46 51
0.745771 1.511423 2.329502 24 51 61
0.760920 1.494014 2.338609 14 45 54
1.340728 0.578334 3.285633 23 112 49
0.787463 1.473372 2.374525 11 40 54
0.815418 1.437762 2.405148 23 54 63
0.821497 1.439942 2.403308 10 38 45
1.157920 0.932709 2.922635 14 36 48
0.853802 1.423375 2.409781 101 150 142
0.874495 1.405553 2.437291 7 41 54
0.874804 1.413567 2.430085 16 43 53
1.523683 0.415060 3.447811 29 113 58
1.053747 1.211178 2.633641 105 166 162
1.053970 1.211882 2.652114 7 35 46
0.944378 1.402402 2.438322 11 39 50
0.944738 1.413131 2.432668 112 178 167
1.092826 1.210363 2.634565 2 23 38
1.087139 1.222334 2.628026 96 144 138
0.978506 1.400698 2.442841 10 39 48
1.079695 1.241416 2.621861 18 50 61
1.117922 1.208615 2.632506 127 186 178
1.632804 0.408131 3.450824 38 115 71
1.125015 1.217830 2.626907 18 50 56
1.110342 1.259951 2.600724 0 41 48
1.153879 1.228000 2.623715 15 56 59
1.362595 0.935139 2.924610 15 38 46
1.072410 1.430135 2.405462 8 35 49
1.094322 1.436860 2.397960 98 153 150
1.127909 1.432947 2.409484 23 45 56
-3.625433 -2.088620 5.820453 5 12 27
-4.550492 1.099720 2.499569 7 6 8
-3.368488 -1.981722 5.730814 114 153 168
-3.365677 -2.016365 5.772679 6 23 32
-3.317894 -2.047076 5.787980 6 23 32
-2.768457 -2.846001 6.574183 113 109 56
-4.204724 0.400735 3.405109 48 77 74
-3.444974 -1.185539 4.960625 89 76 156
-3.356802 -1.167892 4.934083 86 70 157
-2.445978 -2.018095 5.783600 53 42 98
-2.945956 -0.505157 4.276251 99 100 144
-3.178443 0.453456 3.384656 28 48 59
-3.409873 1.027466 2.780567 88 77 157
-1.863685 -1.934277 5.726729 18 91 149
-2.747274 0.000713 3.800071 144 168 166
-1.684297 -1.962673 5.725821 132 161 170
-2.616580 -0.113299 3.920206 27 43 59
-1.524529 -2.192030 5.965413 25 91 139
-1.590131 -2.021937 5.822614 23 87 152
-2.499531 0.024292 3.781685 23 45 56
-2.408007 0.041494 3.773941 22 44 55
-2.378796 0.090487 3.723931 29 51 57
-2.393757 0.171458 3.660836 145 170 166
-2.258866 -0.081734 3.904084 146 171 167
-2.243264 -0.056108 3.872582 31 50 63
-1.271847 -1.993497 5.790575 28 95 152
-2.177025 0.086188 3.731156 146 171 167
-2.001349 0.022068 3.790551 28 52 64
-2.194833 0.477840 3.348075 31 50 63
-2.073971 0.465049 3.402897 70 97 93
-1.996564 0.603653 3.096284 36 58 69
-2.122136 0.609660 3.272092 57 84 80
-0.181554 -2.187408 5.966307 145 162 165
0.108389 -1.826004 5.635169 144 134 151
-0.008477 -1.543869 5.382210 149 170 162
-0.980818 0.977985 2.854851 155 192 184
-0.966273 0.951845 2.891259 52 72 143
-0.553001 1.130389 2.726451 39 60 135
0.629255 -0.833176 4.668819 20 73 136
0.743175 -0.905993 4.746592 134 168 181
