ply
        format ascii 1.0
        element vertex 7057
        property float x
        property float y
        property float z
        property uchar red
        property uchar green
        property uchar blue
        end_header
0.867362 1.859904 2.054217 26 63 59
2.147511 1.111386 2.758987 66 93 113
1.737952 1.139834 2.726312 172 177 176
2.292124 0.951903 2.879559 75 106 121
-0.395914 1.299515 2.590499 168 174 173
-0.851759 1.413186 2.544691 48 74 50
3.110624 0.189777 3.650363 21 16 37
3.117690 0.174699 3.681295 21 19 38
0.794526 -0.363224 4.210988 170 175 176
1.241521 -0.584036 4.414557 160 165 163
-1.018256 -0.063194 3.943462 36 105 154
1.162213 -0.582093 4.429460 174 177 175
1.092753 -0.673479 4.512692 179 182 173
1.200798 -0.727597 4.567975 168 169 165
1.145105 -0.762628 4.598006 182 186 181
0.216483 -0.558318 4.421317 62 79 82
0.685848 -0.687704 4.531722 178 178 172
0.851343 -0.802614 4.647896 51 100 168
0.751771 -0.769865 4.667406 166 175 179
-0.467324 -0.535143 4.392633 110 69 161
1.724437 -1.095387 4.914839 9 19 37
0.030010 -0.737304 4.585447 140 99 130
0.821409 -1.056360 4.891047 99 63 133
1.861997 2.485631 1.407920 166 165 175
2.111822 1.756000 2.122209 169 173 174
-0.771360 1.355496 2.547048 40 64 40
-0.548405 1.205749 2.705242 55 55 163
-0.906727 1.088973 2.822603 160 164 165
2.536987 -0.407012 4.219062 92 57 147
0.853455 -0.419078 4.277315 173 176 174
1.156779 -0.574525 4.423415 168 174 173
-0.756983 -0.201973 4.061577 163 170 173
-0.809056 -0.193652 4.078665 25 120 169
1.095784 -0.671002 4.506741 152 156 150
2.018850 -1.306229 5.131768 164 176 188
2.022688 1.800660 2.100123 100 66 160
2.380206 1.049000 2.844040 74 104 123
3.194661 0.735140 3.075620 40 44 62
-0.606057 -0.149671 4.020365 15 110 160
-0.961533 -0.161179 4.020857 160 165 166
1.158101 -0.702930 4.557230 21 63 52
0.941352 -0.690395 4.540911 163 166 164
0.288194 -0.645396 4.477290 53 72 75
0.678180 -0.940799 4.768724 80 118 176
3.506846 0.951518 2.977939 173 175 175
1.181578 -0.430949 4.294667 170 175 174
0.964560 -0.903662 4.727520 40 90 80
0.639340 -0.882777 4.750599 166 170 171
0.653322 1.379493 2.506936 43 112 102
2.413046 0.055133 3.811558 68 77 91
-0.443960 1.227363 2.669365 106 129 179
1.442170 -0.294648 4.141023 83 71 123
1.436479 -0.347767 4.195817 57 67 97
1.304108 -0.381648 4.225969 79 74 136
1.286775 -0.366437 4.217513 50 46 105
1.289490 -0.377029 4.227723 57 47 117
1.283747 -0.462453 4.307132 4 56 46
1.717673 -0.775452 4.627623 75 124 108
1.275990 -0.538248 4.395578 93 145 127
1.208277 -0.548566 4.403880 104 158 141
1.153055 -0.608163 4.463588 87 138 124
1.116602 -0.580685 4.443348 106 160 143
1.019280 -0.629720 4.470595 37 84 68
1.036485 -0.771952 4.609557 0 37 23
-0.096089 -0.091776 3.947975 15 46 45
0.751511 -0.739430 4.579178 9 55 119
0.697483 -0.785564 4.626118 26 47 129
-0.233665 -0.155895 4.018273 46 34 70
-0.287653 -0.123618 3.987175 57 58 96
0.713444 -0.871970 4.713331 10 47 121
0.974044 -1.076200 4.904432 63 56 117
0.934474 -1.079145 4.912155 69 79 113
0.900676 -1.121139 4.951239 50 54 107
-0.267776 -0.593715 4.448595 71 73 137
5.049643 1.128700 2.678062 41 72 69
2.199844 2.968400 0.916374 21 35 41
5.665626 0.572462 3.276600 136 148 154
5.736380 0.100390 3.710203 158 163 166
1.905334 2.475196 1.409409 143 151 181
3.437197 1.327714 2.516263 27 50 58
2.238622 2.130352 1.751046 133 149 186
3.486980 1.270772 2.580071 83 102 115
3.428067 1.262314 2.587922 28 54 60
3.495590 1.198606 2.665519 126 154 154
3.393540 1.150578 2.705507 41 72 69
0.977368 2.491134 1.394040 82 107 103
2.869246 1.206732 2.637425 33 53 64
4.333306 0.225146 3.620476 33 60 64
3.446091 0.794913 3.054543 133 159 159
2.848928 1.157229 2.687445 28 52 58
3.597084 0.687096 3.179064 151 176 172
0.937552 2.378343 1.527666 135 174 183
3.141793 0.858913 2.982174 35 55 66
3.135658 0.877736 2.976519 138 162 162
3.301722 0.677789 3.181255 32 54 60
3.136006 0.755075 3.092992 136 158 163
1.111377 1.956590 1.940617 36 77 80
1.037796 1.971043 1.928620 36 75 77
0.836479 2.078130 1.821038 47 80 76
0.999833 1.964701 1.930734 46 90 91
0.956409 1.966077 1.923078 134 165 162
0.935728 2.010148 1.900724 21 59 63
0.999235 1.847933 2.056559 14 58 52
0.937845 1.852655 2.048231 14 66 59
0.767437 1.906358 1.986806 12 68 63
0.644952 1.974579 1.918766 143 171 171
0.688865 1.947537 1.948798 20 77 76
1.736770 1.192063 2.667714 26 51 61
0.616144 1.971610 1.930252 35 79 78
0.576410 1.984043 1.925241 20 69 67
0.543544 1.983912 1.920909 31 69 69
3.138174 0.207442 3.656747 21 23 54
1.677991 1.155750 2.711510 140 167 163
0.473179 1.975990 1.921216 27 62 66
3.128536 0.179639 3.680124 17 23 46
3.006981 0.224653 3.621420 25 30 63
1.152325 1.461382 2.421735 29 67 69
3.090430 0.178764 3.685226 7 17 35
0.336113 1.964261 1.933725 141 169 169
0.836466 1.488459 2.400881 122 181 177
0.245484 1.885580 2.017286 26 56 61
0.694063 1.572003 2.332865 94 158 153
3.072968 -0.029318 3.894955 143 143 189
2.506000 0.323027 3.532533 153 177 197
3.162410 -0.089820 3.956594 139 134 203
2.561001 0.237922 3.616502 153 172 185
2.536777 0.246509 3.608042 72 58 146
3.156855 -0.180544 4.038777 51 44 117
2.507207 0.209525 3.653084 170 186 202
2.523870 0.140426 3.721202 169 185 201
0.234920 1.677151 2.225438 8 50 57
2.238234 0.301705 3.548002 110 113 141
2.515086 0.123402 3.732297 90 85 140
2.457809 0.140208 3.712604 75 69 148
2.466851 0.142173 3.732751 168 188 199
0.566124 1.382623 2.505472 16 67 70
0.523877 1.373938 2.516470 30 62 73
2.441443 0.112207 3.765500 144 138 185
0.559057 1.318463 2.556771 137 181 174
2.411778 0.061910 3.792594 14 18 43
2.367697 0.083649 3.769772 8 15 42
0.106320 1.572874 2.324774 21 53 58
0.104382 1.542276 2.342905 141 172 171
0.184048 1.472730 2.424284 24 53 58
2.356900 0.001636 3.862468 156 153 192
2.285042 0.044364 3.823909 127 126 166
2.291731 -0.023238 3.875120 105 105 141
1.407075 0.437541 3.419891 30 122 71
1.614012 0.295591 3.557094 34 120 72
1.485751 0.370752 3.478843 24 110 62
1.571988 0.306576 3.551686 129 168 153
2.779002 -0.546054 4.387515 75 70 131
2.515254 -0.368350 4.219855 176 197 205
-0.013091 1.225695 2.665109 96 128 123
2.438572 -0.415654 4.282940 155 175 192
-0.408074 1.360090 2.537156 80 113 109
-0.125181 1.084915 2.780654 54 98 97
-0.379085 1.270107 2.626619 100 142 171
-0.203997 1.144253 2.751067 45 81 64
-0.608655 1.382216 2.500570 131 161 148
-0.645916 1.400577 2.483625 41 77 55
-0.394134 1.242192 2.669775 99 130 169
-0.690108 1.349486 2.530603 63 94 87
-0.557139 1.217381 2.684658 37 44 129
-0.750242 1.311232 2.568818 37 76 55
-0.270500 0.876515 3.016712 111 148 170
-0.285995 0.862516 3.019759 31 59 124
1.584630 -0.438337 4.283356 164 199 203
-0.406390 0.877740 3.003862 29 43 131
-0.424381 0.903556 2.994145 31 39 129
-0.440258 0.900798 2.992645 138 168 193
1.412366 -0.389948 4.232494 95 104 137
1.591617 -0.572576 4.424546 138 173 176
1.669928 -0.652872 4.488373 121 164 151
1.634146 -0.664366 4.504594 132 167 153
1.292974 -0.443910 4.293437 36 88 71
1.527319 -0.613725 4.458926 145 176 177
-0.763950 0.907263 2.977588 23 33 120
0.861259 -0.480178 4.056579 1 3 3
-0.309543 0.597932 3.289670 11 90 153
-0.295978 0.574620 3.304192 3 86 148
-0.450175 0.636892 3.243129 104 75 160
1.334952 -0.562310 4.414321 23 73 55
-0.901334 0.894480 2.985364 19 41 119
1.287958 -0.556373 4.425365 160 200 189
1.214143 -0.541521 4.389772 7 61 44
-0.323104 0.493274 3.383452 93 73 148
0.814641 -0.412866 4.138978 24 32 31
1.162671 -0.527920 4.367041 11 65 58
-0.345427 0.489156 3.390697 161 158 190
-0.382746 0.508649 3.375898 31 92 56
-1.006602 0.900747 2.974692 31 39 128
-0.352331 0.467655 3.410071 91 77 143
-0.426648 0.508027 3.372698 17 86 53
1.508108 -0.792563 4.641292 109 98 70
-0.537246 0.571556 3.307447 99 70 149
-0.456773 0.502044 3.373525 16 39 47
1.192936 -0.611420 4.455235 43 92 70
1.079218 -0.544010 4.381130 143 176 162
-0.456249 0.492195 3.385001 134 165 162
-0.573007 0.566522 3.313172 138 172 165
1.137415 -0.593671 4.434248 153 184 175
-0.421113 0.462141 3.417576 12 84 54
1.173279 -0.613947 4.461057 26 83 62
0.877099 -0.423289 4.278858 163 176 152
-0.173938 -0.203888 3.608368 41 47 42
-0.160396 -0.244138 3.621614 31 35 30
1.111882 -0.619960 4.465500 134 173 165
1.082041 -0.610959 4.446962 11 69 58
-0.540993 0.504212 3.387200 136 162 148
1.220213 -0.712071 4.554941 107 93 70
0.886043 -0.511421 4.356319 121 113 54
1.043320 -0.628232 4.471772 159 185 179
0.939023 -0.575539 4.424014 124 113 51
0.865986 -0.586254 4.431864 128 116 50
0.880756 -0.609462 4.450938 136 121 52
-0.712758 0.461593 3.426310 25 89 147
0.192831 -0.799028 3.996876 42 40 32
-0.732601 0.444823 3.435592 88 65 140
0.827120 -0.665574 4.503875 134 118 49
0.919545 -0.726821 4.570381 18 74 79
-0.802208 0.440931 3.444895 93 67 143
0.717550 -0.630656 4.472787 131 122 78
0.655101 -0.588037 4.432630 128 114 61
1.048642 -0.879855 4.721178 118 155 147
1.104629 -0.963655 4.798897 52 99 77
-0.215211 -0.092205 3.953821 19 50 47
1.061986 -0.956763 4.797201 56 109 95
0.261924 -0.697192 4.267110 4 6 6
0.280131 -0.700552 4.306126 199 203 198
0.714373 -0.802199 4.651511 138 184 191
0.372162 -0.670320 4.516297 129 119 49
-0.563785 -0.061357 3.931860 6 108 157
0.672269 -0.945362 4.784228 21 45 121
-0.598449 -0.102117 3.977102 118 164 175
-0.846378 0.051578 3.828089 0 23 54
-0.199440 -0.570979 4.428368 62 64 135
-0.986783 -0.034078 3.924147 121 162 185
-0.216958 -0.584518 4.440827 72 72 148
-0.046739 -0.708456 4.562716 110 97 121
-0.391791 -0.486210 4.340971 135 156 178
-0.363483 -0.503899 4.362866 132 131 195
-0.266139 -0.573792 4.428582 126 124 194
-0.411131 -0.489172 4.349516 75 67 160
-0.934117 -0.145686 4.021648 131 187 206
-0.282535 -0.599006 4.453535 86 75 155
-0.350701 -0.569158 4.422434 83 68 142
-0.247436 -1.009843 4.850027 154 144 161
2.245686 2.928357 0.958943 141 155 161
-0.779734 0.910860 2.974094 107 137 162
1.134018 -0.515647 4.357545 130 169 161
-0.826093 0.457117 3.424153 133 160 164
5.321961 1.179586 2.684097 40 93 126
5.175773 1.180964 2.662584 89 82 133
2.024692 3.270732 0.624200 137 144 187
4.586106 1.435741 2.407162 51 97 114
4.662621 1.419142 2.447716 114 153 151
2.331378 2.853817 1.032543 14 28 40
2.327164 3.048359 1.004125 12 26 38
2.329427 3.124484 0.973906 11 30 38
1.756835 3.006338 0.878461 132 149 175
3.767527 1.558812 2.300166 30 52 57
3.730889 1.578597 2.279465 26 48 54
2.134763 2.645152 1.255312 131 145 174
3.803120 1.444091 2.418660 30 58 59
3.754290 1.401444 2.443933 32 57 61
3.624110 1.437439 2.393924 25 45 56
3.623255 1.377229 2.461550 134 161 158
3.437821 1.326253 2.515371 27 50 58
3.486405 1.267379 2.579513 84 103 116
3.420993 1.279113 2.565048 32 57 67
3.317416 1.128767 2.723078 138 168 163
2.942341 1.283083 2.563833 68 95 91
1.754806 2.102747 1.784278 139 160 182
3.553077 0.701832 3.112659 31 54 62
3.445566 0.794905 3.035019 29 49 60
3.629424 0.683023 3.154007 43 62 75
2.795986 1.246578 2.611402 143 168 164
2.844115 1.168565 2.662349 35 55 66
3.456086 0.775052 3.058442 27 53 60
2.849252 1.156151 2.687324 25 48 56
3.042550 1.083709 2.795939 39 60 68
3.244252 0.885104 2.969391 32 54 60
3.248350 0.823027 3.008333 142 163 164
3.404276 0.771317 3.104332 29 51 62
2.711797 1.191686 2.672532 143 170 167
0.941895 2.388097 1.527035 130 171 180
4.133208 0.227705 3.621683 59 89 84
3.095937 0.881379 2.962151 47 72 68
3.126888 0.827709 3.007881 31 54 62
3.144086 0.735889 3.101072 35 56 64
3.134727 0.755683 3.093611 144 167 169
0.955436 1.963393 1.922726 137 168 165
0.783763 2.093135 1.820508 42 76 76
2.275494 1.026598 2.822601 152 180 181
0.895823 1.952124 1.928744 93 162 152
1.178052 1.661038 2.227849 110 170 162
0.585086 1.958035 1.924350 60 93 89
3.125110 0.224230 3.617568 133 124 174
0.482069 1.990116 1.916807 30 62 67
3.153856 0.190397 3.662730 131 124 169
3.122478 0.154928 3.699230 32 30 72
2.876962 0.293982 3.568927 71 83 137
1.005382 1.451323 2.419353 97 165 154
0.979568 1.455619 2.427575 108 176 165
0.720142 1.575467 2.318635 18 69 71
0.244464 1.884532 2.018460 26 56 61
3.062489 -0.008468 3.868428 153 150 196
2.639816 0.237720 3.620874 78 71 146
2.986197 0.003622 3.855239 140 142 183
0.162887 1.833049 2.074523 32 70 70
3.235066 -0.250033 4.111706 154 168 187
3.234845 -0.270587 4.119159 78 71 138
3.094201 -0.185816 4.044149 44 38 109
2.495716 0.186953 3.663781 108 105 167
2.430360 0.203946 3.643479 86 75 155
2.452758 0.132115 3.710173 78 71 144
0.564754 1.385886 2.505375 16 67 70
0.561811 1.384661 2.524950 118 173 164
0.523256 1.370051 2.515701 30 62 73
0.069705 1.629265 2.298712 136 168 167
2.399935 0.017153 3.842846 15 20 41
2.295974 0.066103 3.781811 17 21 49
0.220659 1.465180 2.431929 127 181 174
2.394238 -0.005607 3.860791 25 27 58
1.614909 0.295549 3.556660 29 114 62
2.740796 -0.523088 4.371211 84 88 141
2.159355 -0.449311 4.294286 115 122 149
-0.228755 1.113357 2.770363 43 81 53
-0.392759 1.241327 2.667857 85 119 155
-0.244803 1.108257 2.779896 24 66 43
-0.490739 1.216288 2.681649 34 42 131
-0.274206 0.988674 2.901301 43 73 130
2.788339 -1.115413 4.925084 9 27 44
2.758759 -1.118950 4.923419 1 23 41
-0.311651 0.880131 3.014307 124 158 171
1.596274 -0.418207 4.266494 24 121 149
-0.362514 0.885669 3.011622 138 167 182
-0.540883 0.903125 2.991245 125 160 180
0.020340 0.517051 3.364518 9 84 152
-0.243267 0.654464 3.217696 10 93 161
-0.630672 0.917560 2.968387 24 41 122
-0.619388 0.913561 2.976252 124 159 173
1.666324 -0.657008 4.488059 121 161 149
2.579741 -1.278554 5.087954 16 29 37
-0.252692 0.645747 3.242198 124 166 171
1.564076 -0.600459 4.437333 11 62 55
1.274275 -0.438111 4.286836 20 69 55
1.530310 -0.609135 4.459957 151 182 183
1.290611 -0.459072 4.306910 11 61 49
0.861437 -0.479762 4.055589 1 3 3
-0.308125 0.597279 3.289272 2 80 149
-0.453684 0.653871 3.221498 104 80 158
1.642308 -0.731341 4.596721 163 191 185
1.257307 -0.502552 4.349789 169 195 195
1.204088 -0.516667 4.368172 16 68 51
-0.323909 0.493720 3.383801 87 64 146
1.551174 -0.767564 4.610812 18 69 65
-0.937497 0.886075 2.983520 29 45 122
1.167456 -0.524458 4.368748 2 59 50
0.824312 -0.422813 4.146527 27 38 36
1.218987 -0.562569 4.415194 16 70 53
1.381087 -0.668423 4.528394 176 191 187
-0.339668 0.469082 3.404513 99 74 154
-0.391233 0.511710 3.370627 33 96 56
2.274070 -1.315433 5.124977 5 20 52
1.189213 -0.570956 4.415009 14 71 62
-0.504585 0.570784 3.307627 98 69 149
-0.386968 0.488069 3.391969 14 88 40
1.207590 -0.589007 4.440083 12 68 45
1.058436 -0.518330 4.360069 19 73 74
-0.458634 0.501880 3.372676 23 44 52
-0.454036 0.498955 3.386484 128 160 155
1.222083 -0.668628 4.500977 104 85 64
-0.492735 0.490468 3.391752 140 161 159
0.872064 -0.444568 4.290038 148 121 57
-0.512718 0.492955 3.395088 132 161 152
-0.173612 -0.201405 3.610429 42 48 43
1.082552 -0.611007 4.446133 15 71 60
-0.545009 0.494714 3.385472 137 163 150
-0.152288 -0.260855 3.640117 35 39 34
1.747516 -1.067628 4.905066 52 131 164
0.842045 -0.475507 4.315975 141 124 51
-0.243620 0.048760 3.603275 7 11 6
-0.218992 -0.000999 3.624393 7 8 6
0.923425 -0.521691 4.383647 128 118 58
-0.238296 0.025124 3.620670 167 168 164
-0.221889 0.003089 3.641989 164 170 159
1.087866 -0.677371 4.516341 128 159 152
1.027013 -0.642553 4.478265 15 67 49
0.939967 -0.575156 4.423406 131 120 60
-0.640463 0.456329 3.424607 5 91 151
1.145181 -0.752983 4.598479 140 170 157
-0.760464 0.460373 3.426156 147 151 179
0.786775 -0.610479 4.445880 125 121 80
0.816419 -0.639640 4.483639 121 114 59
-0.777880 0.422441 3.452936 99 66 151
-0.792408 0.436769 3.442828 89 63 139
-0.852051 0.468683 3.419851 19 35 42
-0.828944 0.435106 3.435428 30 52 64
0.657185 -0.585829 4.433981 128 114 61
0.742423 -0.642141 4.498497 124 118 59
0.631964 -0.631653 4.473809 169 191 173
0.767808 -0.818856 4.664055 116 154 172
-0.916261 0.209912 3.659692 115 160 171
0.372702 -0.670305 4.515830 124 112 42
0.457531 -0.730835 4.575747 130 117 55
0.866132 -1.011142 4.853193 142 173 172
-0.865390 0.028011 3.844123 46 121 159
-0.201920 -0.573904 4.427763 63 61 143
-0.355618 -0.469229 4.330353 67 58 148
-0.989563 -0.042206 3.921416 117 156 171
-0.348463 -0.494560 4.352540 72 69 149
-0.217249 -0.584633 4.440834 72 72 148
-0.047837 -0.708926 4.563053 114 99 126
-0.357916 -0.544389 4.401232 92 73 146
-0.284171 -0.598845 4.451993 88 75 159
-0.506533 -0.466706 4.325533 75 62 138
-0.509762 -0.488878 4.350071 99 80 153
-0.503541 -0.512855 4.373471 88 68 145
-0.468740 -0.554391 4.402932 79 73 144
0.720601 -1.412479 5.225474 69 106 102
2.251685 2.923567 0.952792 138 155 158
2.250283 2.994284 0.921439 139 159 160
2.191864 2.969253 0.921953 18 30 36
2.096525 2.564994 1.308239 138 158 169
3.824736 1.324592 2.524729 66 96 91
3.692919 1.363819 2.505515 24 43 56
3.650630 1.379469 2.485000 28 48 59
3.698213 1.286353 2.552644 28 51 59
2.031706 2.357326 1.525878 140 159 172
3.459082 1.289328 2.578043 31 51 62
3.338081 1.265279 2.622176 29 58 63
3.302938 1.139588 2.711056 33 63 58
2.862078 1.426970 2.444809 33 55 67
2.876831 1.206945 2.633309 30 49 62
2.797917 1.242257 2.611815 138 163 159
3.248569 0.892653 2.972929 30 50 61
0.802265 2.466216 1.401915 40 120 161
0.931556 2.451987 1.465142 16 32 49
3.320197 0.652527 3.192083 147 171 169
3.281196 0.654877 3.214189 34 53 66
3.033754 0.705058 3.138578 23 48 58
2.277523 1.031730 2.815655 145 176 169
0.883018 1.941615 1.927512 94 165 155
0.708731 1.956758 1.948141 19 70 72
0.863986 1.827305 2.062890 17 58 53
1.125688 1.552825 2.325104 102 167 158
0.439519 1.980619 1.916909 46 72 84
1.138551 1.509000 2.379228 144 173 170
2.921753 0.270427 3.586960 85 88 149
2.877259 0.276068 3.585809 160 182 188
2.635604 0.356417 3.487709 145 168 176
0.267638 1.913792 1.986512 33 64 65
0.682738 1.567307 2.323088 42 90 94
3.268865 -0.235039 4.098292 85 87 145
2.495366 0.204899 3.646403 160 179 187
2.434565 0.030620 3.824683 134 127 172
0.091333 1.625928 2.295923 57 89 94
0.060350 1.614186 2.302599 141 172 171
2.947526 -0.338130 4.196951 137 159 165
0.347609 1.390530 2.506041 42 77 80
0.132859 1.515663 2.368189 40 69 73
2.789896 -0.543921 4.388776 94 91 146
-0.090960 1.098494 2.792873 53 107 114
-0.155138 1.109763 2.767770 38 75 49
-0.364763 1.256022 2.647340 43 70 120
-0.353592 1.211649 2.676698 144 175 174
2.796729 -1.022133 4.868825 0 23 38
-0.628489 1.247170 2.653088 128 162 162
-0.246324 0.654196 3.219446 3 90 156
1.733900 -0.727802 4.578781 142 176 170
0.862687 -0.478278 4.052314 4 6 6
-0.965044 1.009109 2.876621 39 60 135
1.260934 -0.494826 4.349794 175 202 199
-0.496742 0.632312 3.241858 146 152 181
-0.939634 0.905802 2.980834 25 35 119
1.492221 -0.716689 4.573445 99 85 57
-0.321663 0.506158 3.388221 105 83 161
1.496367 -0.742128 4.595234 95 83 55
1.540355 -0.773386 4.626226 155 188 181
1.394362 -0.686156 4.532898 126 107 80
1.122171 -0.516551 4.361922 163 193 188
-0.390257 0.516937 3.375679 32 101 56
1.176594 -0.556119 4.407761 130 159 156
1.070058 -0.511501 4.361822 14 71 70
1.062063 -0.534952 4.386167 6 63 54
-0.474900 0.501328 3.380227 8 26 37
0.867373 -0.426918 4.277191 148 168 156
1.797026 -1.099201 4.887990 0 20 38
1.040880 -0.548065 4.400710 126 157 156
-0.528360 0.497554 3.384625 37 100 61
1.087032 -0.608517 4.446514 18 69 61
1.200606 -0.674572 4.524839 166 193 189
1.047540 -0.571555 4.425563 142 169 165
1.457872 -0.859121 4.709496 168 190 185
1.176245 -0.684015 4.541909 14 64 46
0.890575 -0.505358 4.358531 121 113 54
-0.224855 0.000786 3.645110 161 168 155
-0.646726 0.448695 3.425404 12 91 158
1.737143 -1.189549 5.006231 5 21 37
0.953632 -0.658319 4.504836 165 197 196
-0.678073 0.434388 3.447741 12 89 152
-0.744318 0.439144 3.443515 109 74 161
0.812751 -0.689534 4.536233 152 174 162
0.741073 -0.642740 4.498054 129 120 56
0.808229 -0.705168 4.550486 128 117 57
-1.236148 0.651256 3.220267 119 156 148
0.653757 -0.634127 4.474996 137 121 55
0.636618 -0.622474 4.472733 143 167 157
0.976003 -0.861241 4.702626 18 68 58
0.685942 -0.683704 4.529983 153 175 163
0.789088 -0.814473 4.653127 0 39 106
0.273949 -0.714830 4.296025 166 167 163
0.752534 -0.796174 4.653660 144 177 186
-0.889894 0.242554 3.634560 98 159 173
0.704289 -0.873485 4.709881 46 88 155
0.374323 -0.667919 4.516813 123 110 42
-0.669525 0.014624 3.863901 11 77 155
0.676109 -0.929211 4.758512 18 89 152
-0.768184 0.033764 3.837666 0 24 44
-0.200164 -0.548797 4.403903 63 59 141
-0.736105 -0.179724 4.055303 126 164 168
-0.351192 -0.495349 4.352728 68 65 145
-0.282256 -0.550260 4.400603 79 75 146
-0.372696 -0.498586 4.354517 63 50 142
-0.934888 -0.141432 4.010396 147 179 190
-0.991338 -0.109494 3.981193 19 118 156
-0.355099 -0.543595 4.400762 84 65 146
-0.346242 -0.567952 4.421774 75 56 135
-0.493458 -0.537270 4.393993 81 61 144
0.711953 -1.361660 5.194562 128 163 159
4.601454 1.416048 2.435156 50 100 118
-0.172587 0.083002 3.545142 14 17 15
-0.313113 -0.551197 4.407456 87 83 154
2.311429 2.944118 0.958788 17 26 36
5.370732 0.709866 3.129947 125 159 159
5.320460 0.770671 3.090882 128 162 162
2.336970 2.530019 1.358731 136 164 165
3.650146 1.381349 2.346036 27 47 58
3.663548 1.568260 2.268767 25 46 54
3.780073 1.492273 2.351317 26 46 57
5.477842 0.233674 3.583491 105 82 164
3.456854 1.500463 2.329424 32 51 64
3.272466 1.493139 2.342236 65 92 88
2.023299 2.359630 1.523841 133 161 162
2.517656 1.815117 2.047889 93 88 167
1.537727 2.445947 1.434833 141 169 169
3.563050 0.936818 2.903062 27 47 58
3.693541 0.879179 2.983523 34 56 62
2.869789 1.389618 2.467447 27 46 61
3.410480 0.714717 3.061817 31 53 65
0.827083 2.521115 1.392507 31 117 163
3.335950 0.694582 3.143914 147 172 168
1.848154 1.686447 2.183103 81 81 157
1.043914 1.928011 1.937328 28 64 72
4.557864 -0.373816 4.237306 133 155 90
0.562352 1.951298 1.926310 27 65 67
0.146355 1.550799 2.368685 34 63 67
1.685769 0.345853 3.508514 143 172 163
1.815714 0.249494 3.613471 37 126 76
0.001107 1.116699 2.749929 69 122 125
-0.058108 1.089255 2.766150 45 101 112
-0.629084 1.225839 2.681398 28 47 122
-0.246828 0.645084 3.247691 133 166 169
-0.289921 0.681139 3.218098 13 91 158
1.667576 -0.820582 4.678514 18 67 53
1.193630 -0.515973 4.369856 0 54 41
-0.330088 0.477788 3.394122 124 107 174
1.827809 -1.081873 4.907684 5 23 40
1.403494 -0.787256 4.647070 156 176 171
0.864918 -0.484398 4.322607 175 198 193
1.033439 -0.633502 4.483856 15 67 49
0.914701 -0.630115 4.474417 140 125 53
0.644805 -0.660706 4.496861 138 164 158
0.653161 -0.663793 4.511159 147 171 163
-0.557449 -0.029569 3.898815 14 121 172
0.197509 -0.546905 4.394211 42 77 80
0.245452 -0.612887 4.457455 43 77 76
0.816188 -0.986870 4.853412 67 56 119
-0.919870 0.018499 3.847494 133 162 166
-0.374607 -0.421645 4.283638 87 86 160
-0.738226 -0.181818 4.057173 127 167 166
-0.771594 -0.185401 4.056125 137 171 170
-0.318686 -0.525821 4.379152 141 167 174
-0.938993 -0.149264 4.009570 142 177 181
5.635756 0.169812 3.612612 144 166 164
3.501625 1.337827 2.415775 143 168 164
3.559948 1.500875 2.380398 136 163 159
1.801034 2.359648 1.531010 139 167 168
3.360724 1.203113 2.646992 138 169 162
3.446753 1.141131 2.707279 140 170 165
3.224486 1.259286 2.608229 145 172 168
3.780856 0.763769 3.052783 26 45 58
3.144022 1.178153 2.695329 32 51 66
0.870790 2.483785 1.408691 20 116 162
0.919764 2.404990 1.488428 21 34 56
3.183191 0.858300 2.986536 40 59 72
1.821487 1.680283 2.182306 81 75 162
3.892870 -0.224559 4.048121 134 143 86
2.643542 0.355022 3.475432 151 175 175
1.702123 0.348084 3.507477 142 169 165
0.005663 1.113214 2.749948 76 125 127
-0.235593 -0.008170 3.647713 160 165 156
-0.650757 0.447188 3.429809 0 81 148
0.950619 -0.686630 4.547961 129 155 149
0.752531 -0.681456 4.526297 170 166 107
0.677315 -0.714967 4.531399 156 181 177
-0.879941 0.299057 3.576466 12 121 172
0.206079 -0.538813 4.402368 41 76 79
-0.567936 -0.034642 3.897240 24 126 175
0.246653 -0.606631 4.456343 43 75 74
-0.650700 0.017880 3.886373 27 92 166
3.625051 0.888896 2.940829 24 42 53
-0.224380 0.952038 2.945808 36 65 132
1.549553 2.460710 1.403395 140 169 166
1.437817 2.451339 1.441719 84 71 163
1.804171 1.695756 2.179493 83 74 165
3.982409 -0.178321 4.075525 120 132 72
2.536610 0.371477 3.472637 26 95 164
0.001491 1.106279 2.749582 74 125 127
1.196490 -0.429981 4.315866 147 174 170
-0.500548 0.563013 3.287126 122 93 173
1.106436 -0.553833 4.372378 152 178 172
0.993474 -0.662056 4.485693 30 79 63
0.920351 -0.761546 4.569959 56 108 98
-0.055034 -0.072659 3.947300 41 72 71
-0.881880 0.298688 3.580104 5 114 165
-0.967037 -0.005611 3.885984 16 83 146
-0.266928 -0.594581 4.438802 99 98 170
3.279354 1.315414 2.555049 145 175 170
2.877649 1.272730 2.544487 148 173 169
-0.675047 0.459048 3.427040 72 125 158
-0.214155 0.053775 3.827842 143 173 168
0.127671 -0.133354 4.029182 142 172 167
0.538297 1.364450 2.536483 37 51 57
-0.298718 1.304421 2.590772 178 189 187
-0.358067 1.272018 2.621372 174 186 190
-0.372510 1.218202 2.675015 41 70 101
-0.324861 1.155417 2.743148 34 77 126
-0.479050 1.303851 2.581443 113 124 122
-0.500515 1.300012 2.598388 114 124 124
-0.622556 1.357620 2.537313 126 143 139
1.101870 -0.765157 4.600309 0 32 21
1.004488 -0.894650 4.727965 109 153 146
-0.634670 1.002354 2.897150 129 144 217
0.770320 -0.793249 4.631494 4 34 123
0.918763 -0.994125 4.821203 97 74 126
0.787122 -1.010807 4.842216 80 51 120
0.877508 -1.125152 4.955441 90 76 117
0.646860 -0.835959 4.680215 98 143 194
0.775680 -1.091040 4.917707 107 61 134
-0.522057 0.497790 3.391659 47 101 66
3.812326 1.452255 2.418809 43 54 58
3.707580 1.368457 2.507203 49 55 62
3.475639 1.527956 2.341977 47 56 69
3.466360 1.547850 2.330253 172 176 177
3.452190 1.324765 2.538939 35 45 55
3.634524 0.933338 2.919680 49 55 66
3.299306 1.155590 2.708964 167 174 171
3.126195 1.238061 2.630435 45 54 64
3.448318 0.772385 3.056560 37 45 58
3.582771 0.675391 3.179967 183 188 186
2.911842 1.395273 2.474339 184 188 183
3.258420 0.870328 2.971436 180 185 184
3.328661 0.705238 3.135071 185 190 188
2.711593 1.410851 2.472453 52 62 79
3.155948 0.851916 3.011271 46 54 67
3.333015 0.628378 3.222129 86 89 87
2.911131 1.081025 2.772799 54 61 70
2.789891 1.251052 2.629922 36 42 53
2.899510 1.139125 2.752219 164 168 173
2.766629 1.197566 2.674068 51 60 64
2.311175 1.061989 2.828694 185 190 193
3.009022 -0.035203 3.876827 55 38 82
1.179472 1.909817 1.992380 41 65 71
1.696009 1.236424 2.652560 80 86 85
1.221706 1.779726 2.132824 32 58 65
1.729234 1.174427 2.723421 47 56 65
1.685951 1.213896 2.692691 46 60 66
1.232153 1.693109 2.228307 169 177 176
1.083108 1.821543 2.086672 22 76 59
1.054248 1.830140 2.070487 22 63 58
1.033796 1.842812 2.054592 125 169 163
1.052063 1.812385 2.081152 7 45 39
0.932940 1.811160 2.083229 12 73 37
1.155551 1.571632 2.337999 23 45 56
0.904912 1.817602 2.077739 1 56 29
1.135680 1.486675 2.409558 35 57 55
1.108163 1.511801 2.391108 33 50 63
1.093259 1.525309 2.387172 133 171 171
1.118078 1.517219 2.405708 120 164 165
2.319034 -0.002529 3.842328 29 24 45
0.740918 1.819304 2.074294 29 64 67
1.034082 1.497370 2.419443 133 175 174
1.087983 1.263851 2.636862 30 56 70
3.309838 -1.434502 5.222403 56 33 85
1.089094 1.247473 2.656223 126 174 168
3.318235 -1.440695 5.240504 59 21 81
0.748042 1.559689 2.338900 25 63 63
0.795426 1.513618 2.396423 123 171 165
0.718816 1.563200 2.331643 129 176 173
1.026845 1.223213 2.676795 126 171 168
3.179931 -1.526294 5.320877 94 85 111
2.712117 -1.028598 4.826312 10 22 46
0.913660 1.178509 2.729307 41 55 73
2.792086 -1.127468 4.946092 8 33 73
0.590243 1.400952 2.497983 133 177 176
0.537943 1.393137 2.509606 24 53 62
0.556299 1.370733 2.535214 144 171 167
0.568030 1.341554 2.556882 155 177 175
0.562026 1.315136 2.580400 31 43 43
0.507842 1.392411 2.513552 39 58 65
0.591550 1.293290 2.614665 45 55 65
0.544117 1.357618 2.557109 180 191 195
0.505131 1.363044 2.525245 160 172 172
0.567605 1.314623 2.594057 166 178 180
0.635073 1.205119 2.691603 154 187 183
0.605533 1.206859 2.690834 187 194 197
0.201865 1.643503 2.247283 21 42 63
0.424127 1.410762 2.506343 128 172 166
2.532774 -1.222524 5.036302 164 176 180
0.220758 1.469258 2.432347 164 191 188
0.225083 1.457153 2.447474 51 63 67
0.170869 1.503670 2.391028 164 177 179
0.069176 1.602226 2.281011 151 191 186
0.124888 1.560031 2.339846 45 52 71
0.086377 1.581995 2.304816 32 49 58
0.101755 1.562609 2.325875 41 54 52
0.137998 1.520571 2.370988 37 45 62
0.207339 1.447677 2.452091 165 173 172
0.187654 1.479590 2.425193 40 51 65
0.170676 1.485763 2.411358 34 50 63
0.154037 1.504243 2.391124 35 50 59
0.197624 1.459769 2.445298 167 176 180
0.050179 1.599640 2.283553 35 55 60
0.118900 1.540580 2.360022 167 179 181
0.169922 1.474319 2.424212 168 177 180
0.154447 1.483541 2.410826 164 174 174
0.154114 1.502240 2.404773 167 177 177
0.033940 1.610815 2.276319 36 51 53
1.633658 -0.497744 4.326189 41 123 170
0.424158 0.685346 3.195624 16 120 173
0.397203 0.688064 3.199879 19 120 175
0.349572 0.722858 3.157746 27 126 176
1.994151 -1.297742 5.111134 31 37 44
1.285836 -0.462809 4.304073 11 64 55
1.911059 -1.246144 5.059536 164 172 179
-0.060627 1.104295 2.764319 71 113 118
1.239457 -0.464096 4.311563 34 87 78
1.898863 -1.295158 5.100410 21 25 36
1.713141 -1.098976 4.911328 8 15 40
1.700083 -1.102103 4.918638 75 139 169
1.759430 -1.189067 5.008286 68 144 186
1.194252 -0.524186 4.362263 23 68 52
1.703651 -1.171427 4.981527 15 23 46
-0.152096 1.082451 2.791689 7 35 12
1.163221 -0.532051 4.378241 162 167 168
-0.331647 1.300537 2.601151 169 179 179
1.254407 -0.667037 4.504354 182 180 170
-0.371262 1.293196 2.589707 96 108 108
1.173388 -0.579870 4.424024 174 188 186
-0.219737 1.132647 2.769732 42 71 46
1.333663 -0.796793 4.629631 138 99 77
-0.364402 1.299548 2.604838 162 175 177
-0.190206 1.078669 2.818470 48 76 56
-0.350297 1.252961 2.646245 186 200 206
-0.243325 1.116335 2.781239 40 68 49
1.209472 -0.693531 4.525861 152 113 91
-0.402421 1.283063 2.608782 177 184 187
-0.464636 1.343796 2.545322 110 121 119
-0.341970 1.201353 2.693355 184 187 201
-0.341065 1.187438 2.707055 34 23 150
-0.378886 1.240527 2.663655 136 145 183
-0.368490 1.212188 2.681998 148 156 179
-0.360108 1.192586 2.696245 39 27 147
1.157099 -0.703601 4.523148 22 73 53
-0.436273 1.282646 2.616407 166 174 174
-0.433285 1.275898 2.627494 40 44 123
-0.450275 1.264107 2.625603 78 73 118
-0.406881 1.215760 2.681290 48 35 163
-0.236096 0.967722 2.920430 45 48 163
-0.455540 1.250538 2.655141 52 47 122
-0.400812 1.146168 2.749674 69 149 186
-0.372024 1.104484 2.788172 61 143 174
-0.235785 0.945175 2.953796 57 141 177
-0.602560 1.355646 2.529518 53 82 59
-0.327630 1.025541 2.876507 46 52 157
-0.605982 1.320544 2.560491 49 66 139
-0.527585 1.247115 2.659750 129 136 139
-0.604939 1.301072 2.586060 47 75 136
-0.388880 1.026174 2.869445 41 34 168
1.141208 -0.915276 4.747865 0 44 31
-0.311457 0.881858 3.012964 143 163 180
-0.679786 1.328491 2.575120 43 34 150
0.958281 -0.706239 4.543583 173 185 185
-0.328088 0.878535 3.016931 16 27 138
-0.620600 1.204272 2.685767 54 75 143
-0.350490 0.881147 3.008747 34 18 156
-0.663152 1.245667 2.641029 46 60 136
-0.376427 0.885142 3.010252 26 24 137
-0.545715 1.068819 2.824374 63 135 177
-0.743348 1.228257 2.654831 159 160 174
-0.251205 0.655346 3.242491 137 172 182
0.932070 -0.875968 4.702620 25 84 76
-0.302654 0.670791 3.216922 16 80 151
0.924377 -0.876206 4.711976 161 176 185
-0.549140 0.934713 2.954261 91 104 183
-0.803521 1.236220 2.670442 35 13 142
-0.638744 1.013944 2.878511 47 62 141
-0.595893 0.961464 2.935880 53 60 169
-0.609779 0.953788 2.948727 170 161 194
-0.730501 1.083481 2.812908 83 131 195
-0.674366 0.997227 2.892324 39 137 167
0.839371 -0.912705 4.751192 103 163 215
-0.644133 0.915796 2.971437 31 18 146
-0.654171 0.925264 2.971843 163 181 188
-0.335396 0.523447 3.364901 132 68 167
-0.465952 0.681602 3.215836 127 67 161
-0.867485 1.144878 2.737833 44 35 156
-0.351140 0.523904 3.365880 138 77 167
0.810693 -0.940405 4.778552 96 154 206
-0.863155 1.124178 2.762429 46 48 160
-0.691201 0.918973 2.977988 157 178 193
-0.445314 0.611623 3.283719 124 60 160
-0.704237 0.917599 2.981930 18 40 122
-0.210627 0.015938 3.633037 7 2 1
-0.529366 0.654833 3.239445 166 124 195
-0.744371 0.906757 2.980506 29 39 140
0.859924 -1.109467 4.930032 94 72 124
-0.761090 0.916726 2.980070 36 29 150
-0.805925 0.911814 2.973721 22 13 147
-0.540705 0.593341 3.297339 138 72 173
-0.489895 0.496406 3.391992 162 168 167
-0.973371 1.061344 2.821510 158 192 182
-0.570230 0.575910 3.317152 163 182 173
-0.517580 0.521447 3.395337 29 99 58
-0.589623 0.563139 3.324142 16 25 22
-0.671088 0.583052 3.318161 186 185 157
-0.660398 0.487279 3.405887 40 82 149
-0.240839 -0.132661 4.006206 151 134 168
-0.752487 0.457586 3.437705 178 159 198
-0.801366 0.471141 3.424788 126 66 166
-0.852571 0.469556 3.420272 32 39 42
-0.630565 -0.012136 3.896749 150 168 179
-0.390930 -0.410798 4.282835 121 79 164
-0.058203 -1.214682 5.058428 183 152 173
-0.062244 -1.214774 5.069567 104 58 94
0.000710 -1.301362 5.151134 183 150 171
-0.254448 -1.254226 5.105439 59 42 75
-0.241452 -1.306152 5.158204 173 139 163
-0.270330 -1.280194 5.131341 72 44 74
-0.278022 -1.274361 5.124051 159 127 152
3.077397 1.089155 2.799777 64 70 81
-0.145304 1.124607 2.760345 64 81 68
-0.238001 0.038343 3.613144 10 5 4
3.651625 1.635897 2.252854 55 63 70
3.686342 0.820839 3.009536 163 168 166
3.607825 0.954636 2.902547 48 54 67
3.707621 0.824552 3.034101 45 50 59
3.259042 1.158566 2.713540 119 126 123
3.456672 0.804807 3.056820 169 174 177
2.256362 2.157017 1.748332 164 164 180
3.223102 0.854166 2.998418 38 46 59
3.118574 0.868139 2.975491 192 192 192
3.131999 0.839200 3.027885 185 188 186
2.762408 1.196015 2.672906 54 64 71
2.725292 1.217978 2.657268 47 58 72
2.704966 1.233212 2.655364 174 179 180
3.067147 0.164922 3.681971 22 20 42
3.076111 0.156806 3.698159 172 154 195
4.803195 -1.383039 5.439814 59 107 155
4.016129 -1.191203 4.976685 24 89 144
2.987109 -0.021561 3.852524 29 21 52
4.096082 -1.373450 5.160442 52 99 150
3.022278 -0.241169 4.065516 53 28 102
2.964875 -0.235036 4.071942 47 22 96
1.017706 1.973674 1.940632 121 169 163
1.110306 1.517873 2.392243 29 48 61
3.387827 -1.251814 5.042548 65 48 92
3.501722 -1.453163 5.237926 41 19 68
2.270710 0.033940 3.821173 177 156 195
1.093053 1.252447 2.656765 126 174 168
3.211650 -1.539522 5.327568 161 164 168
2.728742 -1.098700 4.899126 14 21 40
2.601377 -0.994681 4.826773 156 171 174
0.161460 1.528967 2.367471 169 181 181
0.203420 1.471788 2.433414 38 51 65
1.635284 -0.443036 4.285494 30 122 165
2.230324 -1.273641 5.084603 14 21 38
1.726286 -0.676866 4.505982 5 47 36
2.232718 -1.301216 5.107043 10 17 36
1.708188 -0.701305 4.524596 165 170 169
1.516014 -0.456744 4.304443 31 112 173
1.586574 -0.575660 4.421231 196 199 207
1.506200 -0.513363 4.344036 26 118 171
1.604560 -0.669697 4.500446 31 86 67
1.899255 -1.311846 4.994153 175 184 188
1.365630 -0.506759 4.349843 50 105 96
1.562804 -0.760848 4.606480 25 73 61
1.934721 -1.245556 5.058589 25 34 47
1.601492 -0.830821 4.666590 35 88 74
1.445821 -0.659880 4.497084 145 105 86
1.462795 -0.679299 4.519559 167 121 104
1.565517 -0.814766 4.649220 32 82 70
1.478642 -0.698135 4.547940 145 102 81
1.287413 -0.488947 4.327446 35 87 70
1.525999 -0.778855 4.615380 201 200 196
1.927250 -1.312054 5.122883 24 30 37
1.728487 -1.077984 4.890245 67 140 172
1.493193 -0.774188 4.611748 143 112 89
1.285100 -0.537215 4.380291 180 190 178
-0.121734 1.096201 2.781700 58 104 105
1.707856 -1.169284 4.982453 32 39 59
1.205207 -0.546775 4.386657 26 78 61
1.697968 -1.178948 4.992418 38 122 158
1.403014 -0.816969 4.644145 153 115 91
1.272760 -0.657421 4.494500 139 96 81
1.184733 -0.547244 4.389691 33 86 72
1.303879 -0.698928 4.542406 139 107 84
1.323849 -0.773794 4.608247 144 103 80
1.361619 -0.812676 4.654858 142 110 87
1.332243 -0.797565 4.628589 138 99 77
-0.361288 1.257667 2.638772 65 92 113
-0.381226 1.286218 2.612068 70 81 119
1.494349 -0.292154 4.669622 195 202 199
-0.400556 1.289462 2.608206 190 197 200
-0.367822 1.245710 2.652303 31 55 115
-0.316454 1.191542 2.716994 52 74 146
1.210690 -0.718265 4.547453 145 106 84
1.337671 -0.874847 4.705288 181 182 173
-0.339144 1.192507 2.706668 34 23 150
1.216657 -0.741050 4.571365 160 119 87
-0.359822 1.198310 2.697520 35 23 143
1.220857 -0.766199 4.592781 159 117 94
1.195474 -0.721829 4.558544 182 183 179
1.164172 -0.698488 4.527852 22 73 53
-0.428463 1.247037 2.649364 44 45 157
1.168400 -0.731080 4.577360 48 88 76
1.140872 -0.730383 4.557148 22 71 57
1.110113 -0.682457 4.524800 52 101 87
-0.459015 1.246975 2.652885 57 50 123
1.055200 -0.661791 4.497753 25 72 50
1.145524 -0.774558 4.614787 179 188 185
-0.222116 0.898825 2.996046 35 30 153
-0.345118 1.032476 2.862541 45 48 163
0.997340 -0.631817 4.472707 38 88 84
-0.604052 1.333809 2.561590 49 66 139
0.886056 -0.510196 4.355955 166 129 67
0.075363 0.495778 3.390489 169 174 183
-0.584295 1.170755 2.714734 62 62 162
1.122451 -0.949501 4.772912 30 82 65
0.891716 -0.683738 4.522238 171 137 71
-0.660240 1.231740 2.674257 49 33 158
0.917824 -0.776862 4.608041 25 82 79
0.853632 -0.687926 4.535118 181 180 166
-0.440560 0.921544 2.980609 35 17 154
-0.736149 1.234054 2.667653 34 14 150
-0.300921 0.671418 3.215760 14 81 150
-0.770069 1.232751 2.668516 35 13 149
0.924578 -0.875704 4.713496 161 172 180
0.936473 -0.917396 4.752185 22 80 79
0.948124 -0.942117 4.771126 27 84 81
-0.626010 0.971305 2.927140 50 61 153
-0.622250 0.953195 2.955116 31 18 158
0.743688 -0.800215 4.645078 177 186 196
-0.498606 0.638278 3.237665 164 152 182
-0.861191 1.085864 2.810987 38 34 153
-0.731036 0.911761 2.979467 161 173 185
-0.880876 1.064511 2.829387 164 155 181
0.265247 -0.692389 4.269149 9 7 7
-0.298455 0.157149 3.727941 170 178 177
-0.672258 0.578285 3.315629 185 183 153
-0.249691 -0.122104 4.004166 148 105 178
0.714419 -1.363739 5.193504 157 171 170
-0.264221 -0.521735 4.386054 104 66 164
-0.361731 -0.442844 4.310345 100 61 163
-0.390801 -0.410107 4.285147 120 73 165
-0.711709 -0.190789 4.073634 8 114 161
-0.064244 -1.217149 5.065905 104 58 94
-0.222893 -1.231735 5.085004 186 152 176
-0.241754 -1.260935 5.106943 165 126 152
-0.277220 -1.263905 5.113129 159 125 149
-0.283833 -1.265024 5.115233 182 153 176
-0.277632 -1.273910 5.124754 172 138 162
2.981273 1.312419 2.560499 92 97 95
1.636236 2.173357 1.740097 172 168 187
2.961950 0.150023 3.625653 35 35 53
3.309314 -0.276808 4.092495 108 77 162
2.887793 -0.049102 3.892857 18 14 50
1.155435 1.931347 1.965422 43 61 62
3.012770 -0.338300 4.176343 182 182 196
1.005765 1.846061 2.058832 33 58 60
3.466605 -1.174130 4.966392 138 125 157
2.391254 0.064653 3.769938 59 53 76
2.735520 -0.495146 4.305269 140 117 179
0.757428 1.830499 2.073091 41 73 72
1.092740 1.266389 2.640601 38 58 75
0.821918 1.515178 2.396774 67 89 101
2.698276 -1.087224 4.894668 48 126 162
2.571735 -1.002603 4.808207 173 179 184
2.582672 -1.244763 5.019198 17 24 33
0.258634 1.416501 2.475473 49 55 74
0.218141 1.424831 2.454823 51 64 72
0.207099 1.466482 2.455010 172 180 180
2.224343 -1.277898 5.078400 11 18 35
1.718236 -0.649538 4.488170 0 43 30
1.555427 -0.458970 4.307032 201 213 215
1.700974 -0.667311 4.501554 174 185 182
1.670117 -0.657796 4.495743 170 177 174
1.543981 -0.642741 4.491914 10 62 52
0.360717 0.725652 3.155744 27 132 183
1.335425 -0.535759 4.383557 196 197 195
-0.051643 1.109574 2.765384 76 118 125
1.943598 -1.308830 5.127287 18 23 32
1.897155 -1.296861 5.094027 24 28 39
1.499225 -0.767625 4.614972 137 106 85
1.277412 -0.556792 4.404060 14 65 51
1.704544 -1.118959 4.932567 13 19 32
1.249546 -0.513759 4.383301 161 170 167
1.708515 -1.168811 4.978189 9 16 35
1.204815 -0.540425 4.392816 20 74 57
1.168562 -0.494202 4.348484 14 69 54
1.781994 -1.105395 5.042384 59 137 174
1.313538 -0.720524 4.565788 137 103 79
1.709699 -1.249758 5.064578 176 190 196
1.359522 -0.814586 4.653105 142 110 87
1.321118 -0.774025 4.606479 139 96 75
-0.398112 1.278345 2.621241 49 46 149
-0.393933 1.253756 2.647333 39 41 159
1.204562 -0.722231 4.565283 183 186 184
1.237459 -0.781959 4.619644 149 112 92
1.312006 -0.865558 4.710404 153 110 89
-0.380477 1.220767 2.692444 32 19 151
1.171796 -0.726742 4.579577 35 80 64
1.059672 -0.654025 4.505354 22 71 55
1.120970 -0.769949 4.614172 12 63 49
-0.348348 1.031523 2.863559 38 42 154
1.129457 -0.795601 4.635529 18 69 55
-0.290030 0.878497 3.017405 40 23 164
1.054912 -0.806709 4.642399 16 69 59
1.058079 -0.833965 4.685867 161 167 172
-0.066421 0.537199 3.359679 33 100 179
-0.358386 0.895699 3.018354 167 176 185
-0.288662 0.591112 3.304924 19 92 166
-0.316883 0.581358 3.310449 171 181 181
-0.444979 0.656642 3.240652 130 73 164
-0.693017 0.911227 2.983845 159 169 179
-0.210565 0.018047 3.625827 11 7 6
-0.241684 0.048322 3.601274 14 10 9
0.838243 -1.107533 4.930634 178 186 186
-0.533993 0.594527 3.297402 133 68 170
0.775983 -1.103140 4.925134 107 64 131
-0.928063 1.021573 2.869893 40 42 154
-1.005609 0.941064 2.961331 31 14 149
0.858988 -1.421426 5.249548 169 181 181
-0.746629 0.475201 3.416614 143 65 178
-0.758754 0.470764 3.435658 173 168 183
0.660491 -1.344668 5.176806 195 205 205
0.658151 -1.357548 5.197737 113 125 129
-0.772844 0.441814 3.457486 122 61 152
-0.792219 0.451232 3.446699 129 66 162
-0.826295 0.464757 3.445378 47 55 62
-0.915958 0.227857 3.663565 156 170 182
-0.482219 -0.448194 4.331732 105 61 156
-0.710927 -0.195164 4.070304 11 115 162
-0.464577 -0.544012 4.411300 113 78 165
-0.259485 -1.250307 5.108781 60 40 75
-0.245575 -1.271751 5.131351 60 41 74
2.727706 1.213937 2.655572 45 55 72
0.938790 -0.876690 4.702366 31 85 80
-0.448723 0.501223 3.388144 171 181 181
3.602142 0.715362 3.127060 65 73 86
3.544275 0.738617 3.114051 174 179 178
1.649670 2.196301 1.740548 172 170 189
1.201713 1.876417 2.022888 41 59 76
0.891466 1.267614 2.147379 35 51 64
1.021075 1.772495 2.078545 18 63 54
2.363803 0.028613 3.777789 22 14 45
3.270370 -1.553793 5.340767 68 91 141
2.573602 -0.997038 4.806672 171 180 183
0.192424 1.476792 2.428428 76 88 100
1.692245 -0.755870 4.595605 196 204 203
1.948610 -1.225752 5.034743 156 167 171
1.812203 -1.085796 4.902445 18 26 43
1.570253 -0.818869 4.644182 20 73 60
1.721430 -1.097612 4.901755 8 15 30
1.261509 -0.565532 4.425007 185 190 188
-0.234872 1.138315 2.784529 46 73 53
1.184799 -0.680896 4.514575 194 199 198
1.308010 -0.867280 4.710739 157 114 97
1.096845 -0.667582 4.510981 176 180 175
-0.293937 1.026039 2.880645 168 178 178
1.018368 -0.794309 4.635799 188 195 192
1.054943 -0.835649 4.684511 164 168 169
-0.633874 1.205419 2.681115 24 26 138
0.933015 -0.771020 4.610813 16 58 57
0.854476 -0.671613 4.528100 171 140 77
0.924061 -0.856953 4.687700 174 179 180
0.959750 -0.936954 4.774677 16 76 68
-0.632114 0.992343 2.921985 44 53 157
-0.312932 0.587710 3.315129 177 182 183
-0.222359 0.010413 3.649383 188 178 171
-0.230492 0.037182 3.640012 192 181 177
0.202509 -0.299560 4.160382 67 56 28
-0.975289 1.048235 2.848385 40 138 108
-0.198389 0.086918 3.814307 150 158 157
-1.000075 1.024171 2.874959 166 175 178
0.817867 -1.383391 5.198826 114 134 135
0.661727 -1.347435 5.174896 187 197 197
-0.366880 -0.491221 4.358242 106 68 166
3.299319 0.851614 2.999939 181 184 182
3.348554 0.804726 3.061400 56 63 78
3.470204 -1.253245 5.052968 70 36 96
0.596114 1.312986 2.609185 51 61 71
0.648251 1.388694 2.621453 86 99 107
0.446731 1.387897 2.524834 45 59 65
1.571130 -0.771775 4.596043 14 62 50
-0.151834 1.107744 2.802174 60 89 64
-0.470213 1.211248 2.691786 30 16 147
-0.603576 1.013722 2.875801 171 177 182
0.967130 -0.943595 4.773560 35 91 80
-0.281789 0.609339 3.296193 45 113 180
-0.531494 0.650576 3.230700 159 108 188
-0.308314 0.211965 3.670820 84 109 113
-0.666002 0.630368 3.259039 165 139 69
-0.636025 0.566740 3.316916 166 141 69
-0.813220 0.477885 3.408548 169 174 175
-0.196498 -0.533060 4.417559 107 69 167
-0.211775 -0.570281 4.432153 115 71 172
2.298910 -0.023377 3.810811 48 48 64
3.054906 0.199338 3.648428 36 36 54
2.736259 0.292189 3.523085 110 77 168
2.572165 -1.245198 5.046638 40 46 57
1.628276 -0.803458 4.424983 31 75 62
1.785981 -1.088727 4.914508 40 45 60
1.252413 -0.596913 4.426260 173 178 176
1.723857 -1.163747 4.986292 15 22 39
0.919616 -0.937026 4.800716 174 182 182
0.208723 -0.293698 4.167946 65 52 26
0.661833 -0.896136 4.733952 179 184 185
-0.214284 0.067396 3.808385 164 172 171
1.948237 -1.279516 5.093429 17 21 32
-0.176855 1.140291 2.782795 41 67 43
0.652024 -0.888169 4.741778 172 180 180
1.669002 -1.147276 4.876975 37 40 54
-0.461785 0.497169 3.402030 83 91 104
-0.471338 0.494231 3.386090 87 95 108
-0.686321 0.923710 2.978043 144 153 180
4.041607 0.255984 3.590119 92 96 97
3.780772 1.424248 2.446498 63 71 84
3.549065 1.436186 2.439160 131 133 133
3.594579 0.907606 2.953210 61 70 80
3.519457 1.438263 2.442403 120 125 123
3.485081 1.565785 2.310734 165 170 173
3.543267 0.946152 2.904664 49 59 69
3.469710 1.548942 2.331670 162 167 170
3.480247 0.818133 3.039719 44 54 64
3.303172 1.146087 2.722035 100 105 104
3.290213 1.242495 2.632554 57 71 77
3.252630 0.843009 3.023460 49 52 66
3.105901 0.188412 3.651533 31 21 51
2.954673 1.447039 2.459587 57 66 80
3.041223 0.202532 3.632898 32 29 51
2.767732 1.213604 2.652186 49 56 65
2.755289 0.266934 3.576981 130 111 166
2.506463 0.323734 3.532258 190 190 202
2.440654 0.127901 3.706110 129 101 167
2.262770 0.032428 3.798442 49 38 71
1.708673 1.211134 2.671299 40 49 59
1.692140 1.234750 2.651370 65 72 75
1.691540 1.189393 2.696740 54 66 72
1.658608 1.106201 2.777575 175 178 176
1.617489 1.115916 2.791353 43 57 69
1.545390 1.067808 2.813648 35 61 67
1.550321 1.089474 2.808662 135 184 176
1.492803 1.262085 2.630853 35 63 70
1.290352 1.394115 2.505730 126 177 170
1.242930 1.423499 2.467969 39 64 66
1.185888 1.653407 2.233545 26 50 62
1.129595 1.479788 2.407906 34 62 69
1.116159 1.524243 2.365401 24 47 62
1.146942 1.305931 2.587391 74 121 113
1.140589 1.273092 2.623097 144 190 184
1.083049 1.259643 2.634515 33 60 70
0.991571 0.925531 2.954569 30 55 65
0.977310 0.947242 2.935642 27 44 63
0.951808 1.080129 2.809731 123 162 160
0.879500 1.461139 2.433583 38 61 76
0.940488 1.121557 2.775300 17 55 57
0.933779 1.154097 2.747768 151 192 187
0.965575 0.914151 2.971830 54 74 85
0.940720 1.019869 2.867615 29 70 73
0.914962 1.144161 2.752060 25 72 63
0.850460 1.468686 2.424206 37 63 69
0.940071 1.042099 2.869488 135 181 175
0.895913 1.177736 2.729671 138 174 174
0.890739 1.061972 2.824490 27 68 63
0.867314 1.126909 2.756664 26 55 62
0.881324 1.101784 2.801797 75 162 128
0.859050 0.910801 2.972069 24 54 59
0.814485 0.870835 3.013212 45 63 64
0.764561 0.897307 2.983946 19 45 39
1.010793 -0.651268 4.486645 76 127 113
0.747552 0.920130 2.963908 22 56 55
0.746837 0.864875 3.019068 38 65 62
0.713104 0.863860 3.020131 40 64 70
0.621016 1.388445 2.506407 38 81 78
0.654940 0.948402 2.948048 176 180 181
0.567923 1.386895 2.504996 37 65 72
0.581765 1.297521 2.607899 35 54 59
0.521255 1.377829 2.516528 39 58 71
0.414662 1.379250 2.519701 43 62 70
0.380851 1.381660 2.518088 42 61 69
0.330200 0.259661 3.369769 7 5 4
0.273850 1.404604 2.491712 176 187 185
0.323721 0.313930 3.350497 214 199 196
0.145404 1.504565 2.378595 74 92 103
0.138820 1.524089 2.371694 41 58 71
0.113538 -0.698910 3.852845 68 55 53
0.072043 1.595310 2.291902 42 58 71
0.071821 1.610878 2.283337 146 172 172
-0.014823 1.227280 2.665501 139 147 146
-0.142419 1.130432 2.761665 66 86 63
-0.164494 1.131347 2.773250 86 117 86
-0.119802 0.401453 3.476049 22 91 160
-0.228476 0.982425 2.925268 48 43 164
-0.219429 0.903185 2.994583 34 15 161
-0.232140 0.964959 2.942876 88 108 185
-0.236619 0.947530 2.954278 36 133 177
-0.269195 0.997081 2.903538 47 44 160
-0.266854 0.909336 2.994401 38 142 177
-0.289222 1.004258 2.897066 54 52 171
-0.268713 0.881749 3.016925 130 149 176
-0.365324 1.241523 2.651635 38 61 109
-0.384959 1.286822 2.609522 74 73 123
-0.378717 1.221986 2.670240 142 148 185
-0.381303 1.232091 2.661201 127 140 184
-0.396602 1.217177 2.675687 147 153 190
-0.338429 0.910994 2.988296 71 133 179
-0.351410 0.880398 3.009193 32 13 152
-0.428688 1.259429 2.634971 178 175 207
-0.432773 1.272047 2.626460 43 62 113
-0.311410 0.596928 3.290709 21 89 172
-0.443360 1.230230 2.668926 137 148 186
-0.329797 0.585232 3.299007 112 50 156
-0.405174 0.992609 2.905437 58 141 179
-0.321285 0.498798 3.384779 139 71 178
-0.461959 1.258630 2.643137 165 168 176
-0.340194 0.592875 3.296649 115 68 154
-0.332422 0.500902 3.390116 139 77 177
-0.342273 0.494434 3.393956 183 175 192
-0.241635 -0.151927 3.996161 76 29 115
