ply
        format ascii 1.0
        element vertex 7057
        property float x
        property float y
        property float z
        property uchar red
        property uchar green
        property uchar blue
        end_header
0.944075 -0.703453 4.547963 146 173 163
1.117728 -0.688579 4.532564 12 67 48
1.067922 -0.595436 4.465535 31 94 74
1.173639 -0.703108 4.524342 31 87 66
0.836493 -0.123392 3.929114 90 116 110
1.062939 -0.506314 4.365173 17 76 72
1.099162 -0.487758 4.348475 24 81 73
1.161658 -0.581184 4.429005 134 165 158
1.053486 -0.368616 4.213871 47 86 84
1.141180 -0.491319 4.323715 11 71 47
1.257700 -0.674552 4.512436 147 167 154
1.039442 -0.284937 4.139584 150 176 170
1.170646 -0.498610 4.345181 15 71 50
1.458670 -0.858784 4.704025 147 170 166
1.233649 -0.450458 4.299290 16 77 73
-0.008908 1.603212 2.256897 19 48 53
1.263411 -0.442687 4.299550 12 71 51
1.296605 -0.475840 4.336215 23 81 56
1.296353 -0.455663 4.306806 22 80 56
1.414525 -0.633270 4.484356 112 96 80
0.068944 1.575457 2.298119 23 52 61
1.754632 -1.172205 5.007591 19 35 51
1.446749 -0.640375 4.501763 108 91 58
0.157409 1.473485 2.405392 20 44 56
1.554336 -0.760378 4.614226 16 74 63
1.541237 -0.609559 4.466928 19 75 64
1.592515 -0.658159 4.514377 2 54 36
1.605885 -0.668106 4.481879 21 79 55
1.469189 -0.441575 4.293329 34 116 158
1.484061 -0.462226 4.308833 136 175 173
1.675300 -0.752297 4.610515 142 170 164
0.237843 1.616377 2.219647 12 40 51
1.640552 -0.658842 4.501188 143 178 158
1.709847 -0.749180 4.594081 138 170 165
1.770389 -0.803342 4.655524 18 70 47
1.729149 -0.700910 4.535097 141 173 168
0.790208 0.858757 2.989734 71 149 108
1.654621 -0.483947 4.325445 9 105 145
0.828340 0.888360 2.959874 8 37 41
1.257070 0.217143 3.643218 130 175 156
0.975002 0.919805 2.927739 14 40 52
0.870618 1.124252 2.723329 95 163 152
0.902805 1.084553 2.750874 29 120 75
0.847396 1.197885 2.668734 14 55 64
0.892697 1.131182 2.723242 24 51 61
0.684767 1.518432 2.318946 19 61 68
1.268125 0.621568 3.245503 32 121 71
0.727125 1.498217 2.328873 100 169 159
0.734365 1.528674 2.338113 26 55 62
0.942559 1.404938 2.446436 24 50 62
1.074253 1.207706 2.651729 114 164 162
1.662721 0.347098 3.511779 137 174 158
1.102664 1.233884 2.618557 100 162 150
1.014322 1.398421 2.426846 15 39 51
1.820830 0.253482 3.594235 30 118 64
-3.214535 -1.825765 5.602155 7 20 36
-4.040245 0.896450 2.873347 93 73 168
-3.407587 -0.531504 4.317558 83 66 153
-3.698158 0.154269 3.648589 60 107 121
-3.371329 -0.381333 4.196177 26 92 163
-2.342762 -2.279790 6.055908 107 86 148
-1.678462 -1.261663 5.080762 130 139 72
-2.435061 0.784483 3.085829 16 36 47
-0.574560 -1.620613 5.460536 45 53 83
-0.371470 -1.310596 5.142575 53 47 78
-0.260861 -1.299635 5.124304 52 44 75
0.576409 -0.304268 3.317482 135 136 126
0.681537 -0.942669 4.771955 53 116 167
0.604398 -0.261132 3.304905 71 70 66
0.970335 -0.941215 4.784582 34 95 81
0.836212 -0.681921 4.531950 146 133 59
0.870918 -0.655236 4.503884 146 170 160
0.934701 -0.699534 4.544610 142 169 160
1.036338 -0.864026 4.711379 149 173 165
1.046579 -0.556139 4.424817 21 83 77
1.153135 -0.576525 4.425893 147 176 167
1.593176 -0.810089 4.670948 30 85 66
1.596019 -0.658835 4.508334 20 72 54
1.610602 -0.575789 4.431974 10 62 45
1.552065 -0.467156 4.310606 139 173 167
1.673921 -0.660165 4.484130 145 169 161
1.715511 -0.584241 4.424130 14 65 45
0.904380 0.867135 2.946311 100 170 157
0.926498 1.037765 2.812575 11 40 45
1.658276 0.419049 3.475206 23 111 51
-3.788749 -0.031203 3.818699 38 66 66
-2.692326 0.115969 3.699201 47 66 79
-2.538684 -0.053765 3.873832 152 178 172
-2.632663 0.059979 3.822212 37 57 68
-2.364889 -0.019335 3.837162 143 168 164
0.953525 -0.777357 4.624074 22 76 63
0.075976 1.583447 2.349268 27 55 62
0.685872 0.878496 2.928242 33 59 66
0.972257 0.955493 2.861337 5 57 47
1.334089 0.474763 3.392676 133 166 152
-3.019448 0.415874 3.268017 36 57 65
-2.842260 -0.067059 3.891578 49 68 81
-2.148875 0.111656 3.636766 57 76 91
-0.689721 -1.643974 5.447661 133 128 160
-1.745306 0.503199 3.309369 117 117 165
-1.296381 0.697222 3.168809 82 133 149
0.107629 -1.612012 5.444761 108 67 124
-0.710721 1.224475 2.641802 153 183 178
-0.743153 1.277676 2.617481 135 165 160
0.688519 -0.949109 4.779755 16 115 167
-0.575499 1.313489 2.556351 134 165 166
0.233060 0.360719 3.318540 40 81 136
0.866213 -0.734670 4.564734 143 171 165
0.491660 0.246992 3.283302 8 9 7
1.005149 -0.597689 4.461118 153 182 173
1.177965 -0.856102 4.629636 19 74 55
1.157007 -0.718323 4.544673 35 90 71
1.180180 -0.658211 4.519387 141 170 161
1.148032 -0.571583 4.411844 136 165 156
1.172714 -0.499709 4.340043 22 78 57
1.571668 -0.771070 4.614967 37 94 73
1.654867 -0.819224 4.671701 18 74 53
0.453868 1.322057 2.520092 26 55 64
1.124477 0.240915 3.620046 33 131 85
1.795251 -0.784143 4.618960 25 79 56
0.826918 1.226741 2.710861 13 52 61
0.980898 1.012831 2.830486 4 41 37
0.873265 1.412138 2.443155 28 56 67
-2.546978 -1.219036 4.957298 133 163 158
-2.610847 -0.950198 4.767565 141 168 164
-2.548625 -0.001560 3.763127 32 49 62
-1.979275 -1.132673 4.895483 119 134 66
-1.488775 -1.917242 5.644985 99 150 190
-0.645405 -1.527483 5.390813 136 129 162
-0.229719 -1.759384 5.531842 135 165 160
0.133119 -1.632938 5.455838 84 43 100
0.368122 -1.602482 5.411949 112 71 128
-0.830484 1.338673 2.562828 29 70 39
0.961314 -0.751451 4.595088 20 78 60
1.131927 -0.553132 4.399635 141 170 161
1.671265 -0.569019 4.558207 2 52 34
0.222695 0.236214 3.503134 13 38 82
1.591606 -0.622863 4.466897 15 71 50
1.169395 0.239056 3.636936 40 138 86
0.868079 0.952683 2.957300 106 176 163
0.415581 0.191970 3.348605 145 144 140
-4.260942 -1.384735 4.772727 125 127 127
-3.675685 -0.382787 3.528542 111 115 116
-4.924809 2.565530 1.368030 128 123 154
-3.189109 0.452619 3.379475 44 60 76
-3.142629 0.432302 3.393436 72 92 97
-2.893021 -0.792083 4.585681 77 58 113
-2.958637 0.544313 3.294953 112 129 126
-2.594108 -2.211540 5.955327 91 52 120
-2.411894 -2.220028 5.978896 69 38 105
-2.652241 0.080917 3.733102 36 52 68
-2.905099 2.520859 1.369954 64 89 99
-2.285065 0.203240 3.617305 39 56 69
-2.241535 -0.077787 3.880593 163 177 175
-2.123925 0.635702 3.204000 92 109 106
-2.099288 0.602295 3.260449 94 117 113
-1.681999 -0.555881 4.359057 80 96 95
-0.605825 0.915638 2.961847 53 47 166
-0.232472 1.095756 2.767004 67 98 77
-0.293444 2.012496 1.866315 32 75 78
0.414924 -0.493110 4.322479 57 57 27
0.452036 -0.555994 4.378614 51 53 24
0.454406 -0.542383 4.372168 146 152 127
0.354895 1.912879 1.932333 81 102 104
0.371130 1.916320 1.934874 47 72 76
0.653597 1.897726 1.951421 25 56 71
0.871725 1.117027 2.743514 22 56 69
0.897508 1.026355 2.830003 12 53 62
0.891919 1.123818 2.725422 25 51 67
0.960701 1.177091 2.685367 20 56 64
1.065768 1.759901 2.093271 37 66 70
1.539481 -0.434747 4.289131 37 110 162
1.643790 -0.566604 4.415879 20 72 55
1.534578 1.041888 2.807618 29 56 70
-4.229942 -1.411789 4.780551 1 3 4
-3.698013 -0.220316 3.370292 137 139 139
-4.945397 2.580884 1.372646 128 123 154
-4.123230 -0.473139 4.255890 128 145 132
-3.893078 2.199872 1.734366 28 34 47
-3.675811 2.024330 1.745900 24 30 43
-3.885089 2.143800 1.793879 36 42 55
-3.806759 2.096212 1.811471 24 31 46
-3.784595 2.244372 1.690189 157 160 168
-3.666539 2.216089 1.706340 23 36 50
-3.241018 -0.543231 4.317220 124 126 156
-3.148224 -0.528252 4.306401 133 132 166
-3.047494 -0.516098 4.292699 131 129 159
-3.007820 0.393624 3.422978 50 66 82
-2.867524 -0.857249 4.655828 47 46 90
-2.990650 0.647663 3.178382 56 75 82
-2.931485 0.312425 3.513868 50 69 82
-2.792875 -0.605524 4.406791 65 52 98
-2.807200 -0.041583 3.841544 45 62 71
-2.753096 0.452831 3.369811 39 56 69
-2.700990 0.118986 3.684601 60 78 89
-2.558716 0.471611 3.340023 35 60 70
-2.443618 0.569692 3.260545 53 69 81
-2.467506 0.779033 3.066413 152 173 171
-2.339654 -0.011738 3.821238 174 185 183
-2.267576 0.221075 3.610559 169 183 182
-2.258728 0.236718 3.592759 104 118 116
-0.861968 1.381405 2.514901 156 173 169
-0.794737 1.417400 2.475598 50 84 60
-0.785100 1.387705 2.498038 42 83 52
-0.630757 1.336750 2.549432 34 73 52
-0.632938 1.380878 2.503634 37 78 47
-0.599976 1.361938 2.509075 146 169 155
-0.588971 1.339014 2.520401 51 86 60
-0.469833 1.195813 2.672459 151 167 174
-0.287434 0.584112 3.250162 12 97 167
-0.353838 1.168261 2.712908 40 41 161
-0.424827 2.018347 1.859547 169 188 185
-0.419536 2.037613 1.834432 160 179 176
-0.418198 1.969694 1.920563 59 84 86
-0.415881 1.951165 1.941990 61 86 90
-0.405954 1.925045 1.963944 66 91 95
-0.382306 2.015806 1.850571 153 179 179
-0.358281 1.861265 2.027514 48 77 86
-0.334280 1.839743 2.053919 150 174 174
-0.161343 1.114489 2.740403 39 73 43
-0.287880 2.043984 1.817327 127 178 170
-0.283061 1.961438 1.912331 36 74 79
-0.287794 2.022036 1.852844 41 77 85
0.427326 -0.514481 4.333454 54 50 15
0.420162 -0.476546 4.312279 148 160 148
0.433472 -0.497470 4.328586 164 165 126
0.404639 0.270590 3.372510 108 105 91
0.187911 1.642060 2.228147 118 176 171
0.210280 1.617013 2.261503 115 170 167
0.217673 1.621281 2.249708 28 60 73
0.881610 -0.479864 3.643631 182 184 178
0.232025 1.623552 2.238402 27 58 73
0.244743 1.853724 2.009669 161 182 179
0.462154 0.657443 3.176610 18 127 179
0.716299 -0.811119 4.645509 153 179 191
0.269604 1.850084 2.004199 35 62 72
0.342524 1.899782 1.949580 165 184 181
0.368378 1.905867 1.940972 149 168 173
0.372997 1.901288 1.952993 41 66 70
0.373609 1.920053 1.924551 155 171 170
0.408624 1.902466 1.945066 30 56 73
0.508107 1.341532 2.520438 33 59 71
0.855085 -0.580100 4.411585 157 144 88
0.426900 1.905260 1.948593 116 170 165
0.529527 1.319006 2.540411 25 56 59
0.572134 1.221477 2.626526 158 179 177
0.557662 1.281393 2.586965 41 67 83
0.572801 1.253062 2.605930 42 71 80
0.955499 -0.869075 4.701690 29 88 90
0.983815 -0.865305 4.702807 34 93 79
0.953220 -0.706743 4.547132 154 176 174
0.686380 0.835475 3.011529 29 58 72
1.004198 -0.636603 4.468435 36 92 79
1.080147 -0.963928 4.808386 29 89 71
0.669403 1.512623 2.342486 37 88 90
0.803533 0.843518 3.006076 28 61 64
0.854471 0.867233 2.983207 41 123 70
0.747253 1.514071 2.347476 36 67 76
0.857997 1.069202 2.768769 26 58 71
1.138914 -0.485140 4.328294 28 90 74
0.781837 1.484849 2.379440 30 64 70
0.735784 1.824725 2.023676 33 89 84
0.897204 0.878446 2.989358 28 55 65
1.163599 -0.582895 4.437417 149 169 164
0.874322 1.113919 2.741797 26 58 71
0.751584 1.839232 2.013204 34 77 86
0.769390 1.765581 2.076508 39 73 79
0.889620 1.128404 2.727323 21 50 64
0.779070 1.846226 1.992923 38 80 85
0.785254 1.848871 1.980905 114 163 161
0.928196 1.038457 2.811474 21 54 57
1.216061 -0.564306 4.415847 27 92 66
0.795418 1.854636 1.980165 135 189 182
0.928794 1.085335 2.771291 10 54 55
1.250596 -0.652258 4.489174 120 103 84
0.794371 1.861571 1.993057 17 66 64
0.958279 0.963697 2.881301 18 51 60
0.815492 1.784637 2.071121 28 59 62
0.930106 1.153185 2.703713 36 62 78
0.962048 1.036821 2.824486 15 54 52
0.985253 0.966518 2.866146 12 50 50
1.240353 -0.461914 4.315211 43 102 87
0.979427 1.019461 2.835412 22 66 59
1.263352 -0.512605 4.357301 27 82 87
1.270389 -0.535635 4.382136 25 88 68
0.854044 1.769298 2.083618 0 42 33
1.023853 0.878537 2.965961 22 45 61
1.295083 -0.566206 4.416911 39 98 77
1.281522 -0.441444 4.283495 37 95 77
0.939336 1.412872 2.450876 27 59 72
1.329187 -0.561872 4.416100 26 86 62
0.934905 1.785459 2.057092 17 51 51
1.108326 0.920599 2.945493 161 179 178
1.097954 1.236197 2.624812 118 167 165
1.106541 1.247809 2.603305 16 56 68
1.107292 1.450383 2.403189 28 57 72
1.266567 0.610851 3.244228 36 125 85
1.125661 1.497424 2.364498 23 50 60
1.521689 -0.505431 4.362598 23 130 164
1.598639 -0.666085 4.518435 37 97 73
1.582068 -0.381941 4.259378 32 135 162
1.592301 -0.412184 4.271474 31 138 165
-3.662609 -0.398901 3.524671 111 120 123
-3.507771 -0.738128 4.502850 36 41 66
-3.570761 0.219345 3.596824 89 132 141
-2.997549 -0.813744 4.594853 79 60 115
-2.911097 -0.819971 4.590598 149 130 185
-2.845911 -0.075469 3.864712 54 71 84
-2.425783 0.775405 3.082343 50 66 83
-2.049628 0.382655 3.435271 114 131 128
-0.756862 1.331175 2.567335 151 170 161
-0.309523 -1.215858 5.041915 168 171 175
0.476507 -0.624632 4.456765 170 185 171
0.480104 -0.565973 4.384776 161 173 161
0.479857 -0.525930 4.365619 180 190 174
0.474024 0.260877 3.349214 9 10 8
0.925496 -0.545172 3.730506 199 196 188
0.686169 -0.691648 4.526531 173 183 170
0.668920 -0.561153 4.392787 167 145 73
0.762637 -0.826653 4.665231 155 174 187
0.336830 1.911986 1.947828 161 178 175
0.401051 1.890753 1.955677 117 174 165
0.856021 -0.581489 4.413804 156 140 81
0.952915 -0.704611 4.544306 162 177 173
0.668576 1.513972 2.343130 33 81 85
1.126029 -0.771721 4.617022 25 82 61
1.121130 -0.687867 4.524778 28 80 63
0.852712 0.853325 3.010018 156 177 174
0.743610 1.766077 2.084841 24 73 71
1.169057 -0.496445 4.345799 20 77 56
1.200077 -0.520370 4.368286 23 83 59
0.974312 0.960032 2.851040 43 134 95
1.229373 -0.519682 4.375569 164 180 173
0.904346 1.416947 2.450070 35 64 79
1.280510 -0.377363 4.217758 116 112 147
1.292908 -0.452694 4.310060 33 92 72
0.931821 1.752914 2.094294 8 68 38
0.933596 1.786028 2.056879 21 57 57
1.120503 1.229440 2.631779 26 64 76
1.139146 1.443909 2.346510 28 56 67
1.546868 -0.777039 4.644325 28 85 70
1.535050 -0.637781 4.497803 25 82 67
1.265954 0.929241 2.924817 29 52 67
1.541168 -0.437289 4.289345 23 109 169
1.400895 0.507647 3.344227 26 120 56
-4.909678 2.782386 1.176294 151 161 168
-2.106117 0.685300 3.150248 35 56 71
-0.367887 0.840219 3.018394 153 178 182
0.927531 -0.732021 4.569187 36 97 99
-4.188004 0.929556 2.921507 113 84 177
-3.717828 0.091411 3.704616 157 176 173
-3.360534 -1.978319 5.728088 131 157 171
-3.648487 1.910352 2.026036 161 176 178
-2.906546 -0.819560 4.590049 150 131 186
-2.611794 -0.119873 3.916689 62 78 94
-2.560028 0.053758 3.776752 43 59 75
-2.529117 -0.014359 3.823459 63 79 95
-2.515702 0.811794 3.070742 159 177 176
-2.348568 0.119348 3.686485 165 179 177
-2.256748 -0.046616 3.883666 52 68 84
-1.102673 1.101308 2.786339 166 185 182
-1.026664 1.048340 2.817468 30 114 79
-0.547658 -1.255664 5.079928 155 171 170
-0.641397 0.897747 2.954671 43 42 162
-0.745985 1.769006 2.136957 166 177 175
-0.643034 1.186865 2.686517 51 52 166
-0.432997 0.844674 2.995959 166 180 186
-0.492914 1.210051 2.673169 152 170 169
-0.301317 0.983935 2.871901 161 178 181
-0.232724 1.112996 2.755922 161 180 177
-0.175226 1.115793 2.740289 48 86 58
-0.018594 1.086466 2.760046 71 124 134
0.061101 1.587183 2.303222 34 61 75
0.471698 0.260112 3.342352 8 9 7
0.356015 0.663413 3.192220 166 191 195
0.650474 -0.637018 4.477262 152 136 70
0.720151 -0.807206 4.656590 157 178 180
0.841197 -0.681162 4.526180 164 142 70
0.885662 -0.855984 4.688528 40 80 145
0.827986 -0.092718 3.940180 137 116 48
0.688431 0.915071 2.927357 142 176 170
1.046762 -0.835766 4.681013 161 179 178
0.666818 1.518123 2.344187 30 78 82
0.817536 0.883660 2.956817 38 70 75
1.024493 -0.281628 4.118121 63 95 94
1.091008 -0.667411 4.521513 151 172 164
0.824522 0.893791 2.962769 16 52 58
1.151094 -0.761846 4.597579 154 174 162
1.154746 -0.797153 4.652604 161 175 164
1.119181 -0.582195 4.433870 155 176 168
0.902360 1.123460 2.714236 53 82 96
0.818603 1.775233 2.078005 42 71 76
1.242831 -0.564289 4.419769 158 176 169
1.248891 -0.527829 4.394657 24 81 82
1.049560 0.903598 2.968657 162 179 176
1.382474 -0.653429 4.504945 133 113 96
1.502598 -0.837284 4.692916 137 109 75
1.490453 -0.720709 4.570601 130 108 73
1.128503 1.488744 2.359758 24 53 62
1.517411 -0.432976 4.287688 158 178 179
1.264376 1.361058 2.488672 27 56 70
-4.096479 1.804661 2.120734 110 80 175
-2.883225 -1.494940 5.250485 155 173 174
-3.092072 0.656816 3.190565 52 68 84
-2.325581 0.192476 3.704871 40 57 70
-1.998991 -0.971334 4.748714 148 150 91
-1.043642 0.964291 2.895289 163 184 182
-0.701827 0.886620 2.967424 51 49 168
0.883687 -0.861046 4.695843 52 94 159
0.727240 0.891099 2.952915 19 61 44
1.130363 -0.620218 4.450849 37 99 81
1.238900 -0.323216 4.157205 14 114 169
1.384910 -0.647039 4.504432 153 119 90
1.459194 -0.649978 4.473983 135 101 71
1.520911 -0.456078 4.300862 26 123 179
-4.095616 -0.549264 4.277857 77 50 16
-0.800843 -1.561967 5.410145 53 52 91
1.224503 -0.561258 4.371165 41 103 81
1.025748 0.896158 2.921044 122 180 169
-3.724023 -1.797115 5.519969 7 34 61
-3.697216 -2.004640 5.777357 19 106 162
-3.672570 -1.458790 5.229964 49 69 70
-3.619442 -1.711768 5.499651 149 166 163
-3.334969 -1.209497 4.941992 111 80 173
-3.151427 -1.839325 5.578092 15 27 51
-3.542686 1.129275 2.793949 115 91 179
-2.540536 0.101365 3.727688 168 183 179
-2.704662 2.225981 1.808132 60 151 112
-2.542541 2.031043 1.918639 65 153 117
-2.375451 1.192842 2.719676 105 134 178
-2.404494 2.115220 1.804142 157 181 173
-1.047545 0.955056 2.892258 167 185 184
-0.409001 1.227916 2.648687 67 91 157
-0.337890 1.190231 2.683938 158 179 177
0.046219 1.609662 2.313616 83 112 119
0.498675 1.359168 2.526801 30 58 69
0.417241 1.447968 2.752992 32 58 70
0.508617 1.318002 2.712582 45 70 80
0.608271 1.352163 2.509140 32 61 75
0.758010 0.870330 3.003715 7 41 41
0.996287 -0.257480 4.132179 59 91 90
1.175933 -0.454448 4.314381 164 181 177
1.243426 -0.497384 4.328432 164 181 177
1.330846 -0.561737 4.410542 27 85 61
1.101490 1.447865 2.392853 25 51 65
1.338906 0.273523 3.514102 164 183 174
-0.016570 -1.232439 5.098323 163 180 177
1.029496 -0.368657 4.218648 46 80 80
1.162363 0.104883 3.739302 33 136 79
0.958204 0.910437 2.958030 47 58 72
0.779062 -0.750776 4.588757 34 30 149
0.778719 -0.922097 4.751531 24 51 138
0.984559 -0.636353 4.474452 46 91 88
1.019530 -0.633757 4.469826 70 92 80
1.087688 -0.955063 4.788216 6 50 44
1.154753 -0.732071 4.570482 75 124 110
1.329722 -0.281667 4.139157 70 25 118
1.337729 -0.329784 4.184890 93 43 131
1.329969 -0.376603 4.231590 95 64 115
1.346227 -0.376569 4.231316 75 47 116
1.356818 -0.380844 4.236593 93 74 113
1.364743 -0.402925 4.257565 94 68 114
1.403520 -0.305081 4.162261 85 44 119
1.374317 -0.425135 4.277148 99 73 126
1.397997 -0.406009 4.259286 132 115 149
1.446335 -0.294218 4.148921 191 182 202
1.437051 -0.379256 4.232521 83 54 110
1.461940 -0.359538 4.213666 108 78 131
1.472031 -0.363888 4.219000 77 38 124
1.557216 -0.611269 4.458835 0 32 24
-4.473741 0.265405 2.802565 46 40 51
-4.311089 -0.092729 3.054578 112 107 116
-4.184862 -0.868378 3.628539 107 103 115
-4.169980 -0.840537 3.601503 102 99 114
-4.430339 0.160485 2.920891 131 126 135
-4.331162 -0.082622 3.086853 38 33 42
-4.194138 -0.941680 3.739821 123 118 127
-4.183151 -0.842805 3.656734 115 109 120
-4.363885 0.243908 2.977163 43 39 45
-4.499432 1.233048 2.254097 75 66 76
-3.693408 -0.479426 3.240939 123 120 129
-3.721997 -0.574467 3.353772 104 103 113
-3.741867 -0.596021 3.379310 98 96 108
-4.121656 -0.981302 3.923596 129 122 129
-4.096284 -1.240224 4.131441 42 36 41
-4.330312 0.349331 3.082851 134 132 132
-3.718726 -0.500619 3.441779 40 39 48
-4.075395 -0.573110 3.756350 10 8 8
-4.049556 -0.514996 3.708373 4 3 5
-4.247133 1.579253 2.241621 157 154 170
-4.208063 1.634426 2.203462 167 164 180
-3.713819 -0.190274 3.366659 9 9 9
-3.765721 -0.399963 3.574864 113 114 118
-3.683861 -0.225348 3.391798 7 7 7
-3.690888 -0.353463 3.529601 8 7 9
-4.243047 0.389325 3.424509 169 171 171
-3.798298 1.715958 2.126854 177 174 189
-3.637624 2.177635 1.677670 169 168 172
-4.191376 0.339122 3.471137 101 105 106
-3.673447 1.347981 2.494128 171 161 197
-4.133702 -0.483903 4.288646 160 167 160
-2.911210 2.591443 1.283548 81 81 99
-2.799952 2.601314 1.269021 66 78 84
-2.803650 2.571822 1.299085 71 82 90
-2.771940 2.484004 1.369614 63 72 85
-3.116977 0.476621 3.362133 167 170 175
-3.023055 0.595550 3.233320 170 173 177
-3.024487 0.454215 3.381709 64 72 85
-2.937419 0.505101 3.323272 65 70 79
-2.623122 0.393994 3.434734 175 180 179
-2.884734 -0.589453 4.425245 168 136 190
-2.376749 0.662644 3.170594 54 59 58
-2.610928 -0.095159 3.934210 163 167 168
-2.533759 0.057012 3.770102 42 48 67
-2.262830 0.455824 3.390326 47 53 76
-2.269662 0.240990 3.597335 55 60 59
-2.095176 0.680410 3.151086 43 49 68
-2.306250 -0.050546 3.882030 184 184 184
-2.139672 0.074046 3.773783 51 54 58
-1.837457 -0.507733 4.358423 84 89 88
-0.804546 1.368344 2.494787 66 83 69
-0.750987 1.282746 2.579623 53 82 57
-0.671699 1.327445 2.540479 75 95 83
-0.665124 1.280357 2.576004 55 60 153
-0.493145 1.184045 2.688116 38 13 157
-0.442733 1.190398 2.663661 74 86 150
-0.009801 1.763274 2.103228 25 40 49
0.110788 1.531776 2.339291 49 59 69
0.594856 1.288130 2.506067 140 179 177
0.380194 0.662954 3.194916 26 127 179
0.712257 1.527814 2.338947 133 179 173
0.653356 0.932143 2.924108 33 45 57
0.648256 0.896728 2.960424 40 48 65
0.655256 0.909300 2.948480 38 48 66
0.672178 0.896846 2.963982 75 156 111
0.678147 0.913511 2.952718 55 66 70
0.991134 1.904146 1.945996 30 45 48
0.751653 0.857340 2.999339 51 138 80
0.755624 0.841919 3.020841 179 184 182
0.766459 0.844806 3.011694 50 58 75
0.446902 -0.550153 4.387907 60 47 21
0.941328 1.161579 2.708088 137 173 173
0.924666 1.042697 2.806827 4 38 31
0.932135 1.060861 2.792494 31 51 56
0.943927 1.040692 2.828166 57 132 104
0.957789 0.979046 2.872051 44 133 100
0.928183 0.886723 2.976190 29 45 62
0.953720 0.922271 2.933751 125 173 167
0.982711 0.906806 2.954671 21 34 50
0.254007 -1.834194 5.611537 72 47 137
1.028724 0.913738 2.946136 133 173 171
1.027792 0.899673 2.959445 37 48 68
0.634094 -0.555186 4.399141 180 140 81
1.052292 0.906041 2.957808 175 182 191
0.638424 -0.642679 4.481515 173 147 93
0.659977 -0.568108 4.408283 165 132 69
0.849023 -0.107913 3.961435 138 98 39
1.219765 0.925158 2.935189 168 177 181
1.253992 0.924978 2.934303 176 181 184
0.533553 -1.796021 5.589258 171 164 197
1.264747 0.634560 3.240255 50 125 93
0.995002 -0.655131 4.494710 75 125 113
1.024384 -0.792113 4.626590 169 180 172
1.097100 -0.573784 4.423432 171 178 171
1.134369 -0.619400 4.464638 33 86 72
1.150718 -0.682534 4.526973 38 75 65
1.260388 -0.337826 4.191964 46 129 160
1.176337 -0.695787 4.535177 36 78 60
1.209579 -0.597545 4.447149 159 178 159
1.736079 1.196041 2.666347 41 45 73
1.327533 -0.288632 4.145355 165 164 173
1.295739 -0.452801 4.307967 34 88 71
1.294782 -0.566464 4.417600 31 80 64
1.393846 -0.415544 4.270270 97 51 133
1.376805 -0.520693 4.369687 18 75 50
1.380629 -0.664747 4.510949 124 104 93
1.478272 -0.376586 4.229768 177 170 185
1.484963 -0.369323 4.227419 96 56 127
1.591176 -0.500632 4.352447 23 120 158
1.622099 -0.651498 4.492483 64 112 94
-0.620670 1.204105 2.640399 58 67 165
0.055277 1.565197 2.305792 167 176 180
-4.360898 0.027885 2.990941 40 35 44
-4.138156 -0.725292 3.529130 24 20 31
-4.316996 -0.056920 3.081172 123 118 127
-3.727528 -0.493035 3.218053 130 126 132
-4.359673 0.240868 2.975541 43 39 45
-4.533740 1.002950 2.460172 77 70 75
-3.731058 -0.566958 3.354787 110 108 120
-4.359629 0.289835 3.028477 56 53 62
-4.138986 -0.972019 3.930290 127 120 127
-3.735317 -0.239622 3.287672 63 63 69
-4.069773 -0.574378 3.756086 5 3 3
-3.961727 -0.448202 3.650594 5 4 6
-4.213116 1.632968 2.206186 162 160 179
-4.265623 1.337009 2.471959 174 173 182
-3.698914 -0.365044 3.511847 132 131 135
-3.684830 -0.354723 3.529059 8 8 8
-4.106650 1.533322 2.289411 167 166 182
-4.147974 1.312159 2.521578 169 163 194
-3.759504 2.195168 1.678527 44 44 56
-3.619786 2.071161 1.697618 28 28 44
-4.285242 0.313218 3.506914 26 30 31
-3.868394 1.594478 2.243361 167 166 182
-4.225811 0.405904 3.416539 64 67 72
-3.808300 1.715636 2.130708 176 175 184
-3.638988 2.129110 1.706531 167 167 173
-3.643948 2.177566 1.680643 177 177 183
-4.202177 0.346073 3.471697 106 110 111
-3.235542 2.795474 1.083707 80 79 99
-4.135777 -0.480901 4.290410 160 167 160
-2.812451 2.581467 1.298019 71 82 90
-2.572894 3.093250 0.769458 70 74 92
-3.219031 0.581867 3.238319 67 72 87
-3.597702 -0.698218 4.539914 29 26 48
-3.093771 0.525613 3.314731 167 172 171
-3.008669 0.631866 3.210793 170 174 175
-3.022378 0.453577 3.381189 64 72 85
-2.980833 0.331926 3.491981 69 72 86
-2.759439 0.466008 3.347171 33 40 59
-2.666757 0.409570 3.423268 79 83 84
-2.807760 -0.004727 3.849383 173 174 178
-2.681405 0.137657 3.695996 39 43 62
-2.852140 -0.879627 4.705142 135 100 187
-2.581267 -0.026380 3.868575 176 179 183
-2.333882 0.201031 3.623765 43 49 62
-2.353580 0.130240 3.697580 172 173 177
-2.390889 0.013975 3.816384 86 88 98
-2.263044 0.451885 3.390445 44 53 73
-2.080692 0.702538 3.143833 167 172 173
-2.079358 0.589264 3.256113 66 71 74
-2.047805 0.457714 3.386908 81 86 85
-2.106547 0.071316 3.765026 49 55 62
-0.956308 2.510901 1.357356 173 181 188
-1.171126 1.457463 2.398566 149 125 135
-0.838855 1.355774 2.507664 175 182 179
-0.802796 1.279546 2.585544 167 180 172
-0.735119 1.300900 2.559089 168 179 169
-0.676148 1.333711 2.522431 169 174 173
-0.684110 1.309846 2.551783 168 174 181
-0.670076 1.357489 2.511086 63 86 72
-0.653798 1.364020 2.493073 168 176 175
-0.426277 2.086322 1.783292 64 76 82
-0.424398 2.068169 1.802309 170 178 177
-0.645212 1.213700 2.643261 53 61 150
-0.589927 1.352213 2.507143 176 183 178
-0.624465 1.178302 2.684073 43 27 164
-0.989214 -0.128564 3.977480 42 133 170
-0.616742 1.087576 2.778321 154 164 181
-0.302772 2.078031 1.795097 146 181 177
-0.400369 1.244818 2.611901 186 193 196
-0.411095 1.197713 2.659535 49 61 169
-0.387669 1.136995 2.720485 47 66 153
-0.331293 1.075974 2.787774 148 178 205
-0.284183 0.951702 2.900861 60 67 178
0.075780 1.565507 2.301872 47 67 78
-0.515058 -0.501814 4.347431 122 86 162
-0.499682 -0.547473 4.392132 112 73 159
0.220619 1.640181 2.229732 37 58 73
0.594885 1.915486 1.950358 126 171 168
0.440432 1.342345 2.508624 134 181 173
0.659563 1.909581 1.946925 68 80 90
0.339242 0.628612 3.225173 196 198 208
0.589465 1.354352 2.521654 131 182 175
0.572379 1.251144 2.606068 44 55 69
0.827074 2.014948 1.835585 45 53 60
0.678429 1.535616 2.342583 132 170 170
0.850317 1.789709 2.065817 30 56 62
0.647788 0.896054 2.960780 44 53 63
0.671396 0.876943 2.982541 45 128 90
0.717758 0.907652 2.955157 26 51 53
0.986531 1.788779 2.067132 34 47 55
0.716240 0.841546 3.024597 174 181 178
0.763928 0.849801 3.012130 50 63 79
1.083147 1.891502 1.960198 124 173 171
0.868172 1.133726 2.728822 127 173 167
0.798759 0.850471 3.008878 32 48 64
0.875922 1.187252 2.717129 130 173 170
0.902850 1.139545 2.722197 21 39 50
0.820602 0.847157 3.014109 182 187 186
0.925656 1.089760 2.772855 19 39 44
1.156260 1.849297 2.001066 124 167 164
0.936154 1.078206 2.788152 147 175 175
0.470809 -0.668411 4.503918 170 140 75
0.942943 1.040058 2.830423 45 132 96
1.068428 1.446875 2.409116 21 37 49
0.926945 0.887855 2.976540 28 44 61
0.961355 0.953465 2.910546 25 47 59
1.065320 1.233446 2.636382 43 55 73
1.081948 1.240224 2.620287 46 67 82
0.540629 -0.736222 4.584431 171 144 70
1.006854 0.900940 2.950385 130 165 161
1.100088 1.238367 2.622922 126 172 166
1.095582 1.247343 2.650179 128 171 168
1.029039 0.913375 2.945409 137 178 173
1.056444 0.913045 2.947045 44 55 69
1.077520 0.911119 2.949871 173 179 178
0.646514 -0.647919 4.493792 178 179 163
0.807550 -0.085063 3.945299 118 96 60
0.687476 -0.814563 4.636433 32 64 153
1.228765 0.932915 2.927670 29 35 58
0.866716 -0.590518 4.431891 167 134 71
0.658558 -1.367769 5.194748 116 128 128
0.880237 -0.604387 4.456511 160 132 68
1.186209 0.105757 3.756907 34 128 74
1.476131 0.966529 2.899202 176 181 184
1.042756 -0.642412 4.483225 41 93 75
1.087106 -0.581318 4.427380 33 87 74
1.114589 -0.482389 4.330383 40 85 82
1.121234 -0.698680 4.534379 0 38 25
1.141652 -0.757889 4.596963 166 175 154
1.212037 -0.596573 4.446549 159 178 159
1.258297 -0.432530 4.286452 36 80 74
1.266460 -0.452511 4.304038 28 80 63
1.275644 -0.494799 4.343553 11 67 68
1.219351 -0.708641 4.555545 137 103 79
1.276222 -0.509460 4.361740 31 82 68
1.302260 -0.480671 4.332216 17 73 54
1.358226 -0.550298 4.400864 44 95 75
1.374585 -0.519151 4.370710 22 78 55
1.456297 -0.458548 4.311548 34 110 152
1.516962 -0.440680 4.297663 168 180 190
1.784037 0.240467 3.624405 48 126 79
1.603479 -0.593007 4.446256 58 110 93
-4.363014 0.028311 2.992003 40 35 44
-4.174369 -0.844344 3.627705 21 17 28
-4.401594 0.350664 2.881852 82 73 76
-3.718655 -0.501671 3.443132 40 39 48
-3.940152 -0.453953 3.648963 2 2 2
-4.205902 1.616412 2.210443 163 163 177
-4.044930 1.659452 2.166846 169 169 185
-4.019557 1.694722 2.142573 171 173 183
-3.839647 1.671456 2.160702 174 172 184
-3.814303 1.707155 2.136324 175 174 184
-2.703473 2.890581 1.006292 70 78 95
-2.760450 2.483991 1.364544 68 81 95
-3.522893 -0.695327 4.495152 72 56 90
-2.436212 1.915897 1.921793 84 158 124
-2.337494 2.098202 1.778914 172 182 176
-2.985163 -0.530323 4.353197 176 170 181
-2.801758 -0.149013 3.973502 55 62 79
-2.921540 -1.098371 4.902927 177 176 192
-2.043837 0.448952 3.388808 70 75 74
-2.034773 -0.952677 4.768314 161 151 97
-0.107021 2.548233 1.297743 65 69 80
0.054508 1.563350 2.315694 172 180 180
0.026065 1.104874 2.759451 116 137 139
0.508874 1.340773 2.520388 50 66 78
0.657296 0.909816 2.950159 39 47 64
0.769248 0.848489 3.004920 42 61 69
0.610675 0.282716 3.582101 145 153 160
0.404689 -0.489144 4.330491 60 53 26
0.849639 1.052241 2.800799 64 88 100
0.873512 1.032166 2.838084 128 174 168
0.908696 1.008643 2.822472 13 53 52
1.154438 1.848660 2.000624 127 175 169
0.869898 0.865017 2.986613 24 40 53
1.170411 1.862416 2.008996 35 51 64
0.969176 0.930902 2.933367 21 37 53
0.640982 -0.575808 4.405511 182 179 174
1.121071 0.941317 2.931687 21 37 53
0.721635 -0.637710 4.474890 167 143 85
0.845520 -0.685179 4.518693 173 143 78
0.881318 -0.604791 4.456458 160 132 68
0.899118 -0.676895 4.524655 163 131 56
1.013310 -0.270601 4.131994 69 94 96
0.914869 -0.749802 4.591996 23 79 74
1.293814 0.296859 3.560700 174 185 175
1.577415 1.074275 2.784300 45 51 70
1.621361 1.070791 2.770907 173 179 178
1.168297 -0.550638 4.407414 168 174 173
1.744771 1.193484 2.667653 23 33 51
1.365889 -0.500958 4.357010 46 99 90
1.666256 0.347038 3.511623 157 178 163
1.457197 -0.526310 4.383548 21 113 162
1.594893 -0.464277 4.318411 21 109 156
2.044606 1.015321 2.838718 166 174 173
1.646633 -0.478058 4.337047 35 115 162
-0.804185 1.278552 2.589021 168 176 175
-0.592628 1.321767 2.556197 168 176 176
0.916552 1.908314 1.936881 123 169 163
0.748940 0.843821 3.025560 174 176 176
0.886602 0.875496 2.969472 124 172 166
-3.975018 1.728856 2.114184 115 75 176
-3.973902 1.289579 2.539235 173 176 180
-4.211887 0.347854 3.429257 158 158 158
-3.794448 1.776536 2.050729 176 179 183
-4.231108 0.315031 3.534268 158 163 162
-3.536963 1.837498 2.019736 175 178 186
-3.740991 0.321049 3.494990 88 115 135
-2.673651 2.863148 1.017032 68 76 93
-3.677706 -0.673415 4.565605 35 25 55
-3.169592 0.452963 3.375836 44 50 69
-2.336390 2.015965 1.819251 174 182 181
-2.994995 -0.520042 4.347248 181 177 189
-2.692961 0.442510 3.401441 173 178 179
-2.438752 -0.002920 3.815291 186 189 187
-1.603958 2.795775 1.089189 94 123 138
-2.445548 -0.115202 3.946209 61 66 65
-2.204498 0.439549 3.409484 181 183 183
-0.735053 1.359924 2.510193 175 180 179
-0.396437 2.155203 1.717344 45 140 96
-0.611876 1.204557 2.676339 172 177 180
-0.466813 1.190300 2.664764 173 176 184
-0.434346 1.213596 2.650472 55 59 164
0.048047 1.565809 2.322744 175 183 183
0.658541 1.917400 1.947212 63 77 89
0.507997 1.358792 2.583751 45 54 64
0.541146 1.305866 2.591631 63 71 88
0.573192 0.278757 3.582631 29 58 102
1.015924 1.795553 2.075623 51 65 71
0.771194 0.888069 2.956047 132 181 173
1.056735 1.760522 2.089557 79 95 101
0.947024 0.985647 2.884472 45 83 85
1.425433 1.261174 2.588942 30 53 68
0.916896 -0.746909 4.592465 24 78 71
1.053982 -0.332542 4.162831 71 91 96
1.053016 -0.335602 4.195305 67 87 92
1.083402 -0.541752 4.396499 166 175 162
1.578837 1.067573 2.782791 40 46 65
1.218366 -0.287757 4.161381 35 114 171
1.673852 1.146273 2.711251 171 175 176
1.195331 -0.595099 4.439668 23 81 63
1.337990 -0.330473 4.185337 93 43 131
1.450881 -0.638957 4.506732 138 100 76
1.572427 -0.434083 4.295661 35 107 154
1.815800 0.245909 3.617944 38 124 70
-4.286555 0.245482 3.091752 152 147 148
-4.106473 -0.639191 3.743751 132 129 131
-3.901295 -0.474168 3.650337 3 3 3
-3.526419 1.835034 2.030137 176 181 184
-3.746499 0.314008 3.497738 84 116 135
-2.361394 1.410816 2.430637 109 130 181
-1.798478 2.890623 0.989736 94 125 140
-0.431449 2.183013 1.696237 52 147 103
0.272744 2.194118 1.657283 48 142 95
0.668160 1.906764 1.946371 78 94 107
0.128722 -1.611292 5.397749 134 69 138
0.536763 -0.488469 4.339004 48 135 169
0.555869 -0.562803 4.401215 174 138 68
1.201550 1.714347 2.155085 51 67 80
1.066386 -0.516959 4.355263 21 83 83
1.199259 -0.522855 4.366540 29 84 69
1.266419 -0.686021 4.514526 172 173 169
-0.484350 1.196988 2.655059 126 133 136
-4.132871 0.782167 2.903752 177 179 179
-3.865032 1.119012 2.679846 177 180 184
-2.872960 -0.547156 4.382482 51 50 70
-2.420815 -0.022286 3.845756 169 171 171
-0.770070 2.601864 1.258275 71 128 160
-0.189427 1.062770 2.790316 63 89 65
1.292135 0.626200 3.256280 48 134 74
0.981037 -0.896697 4.699368 47 101 88
1.350198 -0.540327 4.407351 33 85 67
1.106875 0.184820 3.669687 181 187 186
0.984265 -0.913114 4.716268 38 90 83
1.286381 0.206077 3.658673 174 181 178
0.623956 -0.799912 4.634508 27 21 152
0.698110 -0.830211 4.667955 13 24 138
1.280993 -0.372395 4.223626 183 165 204
1.331254 -0.334559 4.187709 180 177 193
1.417421 -0.301803 4.153615 108 88 130
1.451195 -0.292655 4.140625 178 165 197
0.923993 -0.753983 4.591518 0 37 28
0.732010 -0.929949 4.765908 30 66 142
0.745443 -0.928542 4.762983 42 67 147
0.795749 -0.891308 4.728207 23 33 140
1.404348 -0.396198 4.247982 80 55 115
0.727803 -0.978128 4.810250 37 51 147
1.004102 -0.830340 4.573886 0 41 31
0.742678 -0.976083 4.812000 14 49 135
0.997349 -0.773975 4.610281 0 29 20
0.846581 -0.919377 4.754312 27 26 136
1.104400 -0.743994 4.584659 0 30 16
1.157754 -0.702271 4.544091 0 29 15
1.000263 -0.887211 4.728497 0 30 22
1.014557 -0.897029 4.734311 0 36 30
0.822952 -1.059548 4.894593 106 71 138
0.922031 -0.986522 4.818013 85 62 116
1.548468 -0.616096 4.469033 0 26 20
1.678963 -0.638152 4.487519 27 74 58
1.700695 -0.633922 4.483593 0 22 6
1.774362 -0.603029 4.451275 55 92 72
1.568516 -0.792919 4.641217 0 33 24
1.767968 -0.622478 4.472847 0 34 21
1.746824 -0.675250 4.524469 0 30 21
1.788355 -0.650241 4.499108 0 43 25
1.606578 -0.809464 4.661025 0 30 18
1.674256 -0.757626 4.610460 75 91 84
1.711225 -0.772160 4.620464 0 36 23
-3.144507 2.780821 1.055373 94 99 108
-2.657970 2.823753 1.011733 65 74 84
-1.468751 3.539536 0.325026 110 110 124
-3.014950 2.173095 1.664050 112 96 157
-4.124871 1.297302 2.520291 164 143 198
-3.658768 1.337914 2.492501 158 147 193
-0.362328 2.751486 1.127564 158 164 171
0.233324 2.865197 0.990463 46 81 107
-0.006999 2.718977 1.153732 51 93 128
0.306391 2.812985 1.048088 113 107 118
-2.974687 0.380563 3.441284 116 124 137
-2.900928 0.397621 3.420599 106 113 130
-2.415833 0.666048 3.173687 109 115 114
-2.403499 0.528325 3.309554 101 107 126
-0.279375 2.082289 1.786543 143 162 165
-0.259899 2.088461 1.779023 65 78 86
-0.284646 2.027217 1.839139 51 77 83
-2.649106 0.135291 3.701221 166 171 174
-2.802339 -0.039288 3.849401 46 52 63
-2.057265 0.388801 3.437800 77 82 83
-2.297118 0.207647 3.619719 69 75 82
-2.258487 0.231997 3.595423 80 86 85
-2.345755 0.126668 3.696769 171 173 174
-2.629296 -0.136873 3.944342 45 51 64
-2.429366 0.032821 3.803488 53 59 72
-2.194089 0.083047 3.740887 154 157 161
-2.191926 0.068474 3.754376 38 44 63
-2.100599 0.069507 3.762910 45 53 60
0.144111 1.763396 2.105924 129 169 167
0.603441 1.930931 1.940305 54 73 78
-1.965415 -0.533920 4.362080 135 106 161
-1.873875 -0.480479 4.318683 170 175 176
1.056700 1.777998 2.091868 28 60 55
-1.696456 -0.552270 4.374429 56 61 62
-1.607059 -0.511993 4.342126 46 55 65
-0.911645 -0.014477 3.846505 188 198 205
-0.760662 0.003084 3.829755 16 28 70
1.101426 1.463498 2.405242 34 51 60
1.045566 1.226805 2.636636 131 169 169
0.670428 0.913567 2.940441 158 171 173
0.701012 0.837165 3.015765 54 76 87
-1.646682 -1.191764 4.975251 124 124 84
-0.365118 -0.447341 4.276936 98 72 155
-0.357444 -0.470333 4.300498 103 79 157
-0.347893 -0.512380 4.349175 108 79 164
-0.322840 -0.545529 4.379214 171 167 186
-0.565669 -0.937204 4.752041 129 101 120
1.154589 0.205551 3.646879 165 188 174
0.042892 -0.752294 4.580808 128 107 122
0.438356 -0.480084 4.322799 157 125 72
0.703300 -0.425893 4.267305 178 143 87
0.657054 -0.593374 4.431760 159 133 86
0.623913 -0.787617 4.625167 19 57 135
0.809029 -0.703071 4.550920 146 117 48
1.069826 -0.501528 4.350605 25 85 97
1.357032 -0.305972 4.147105 120 92 145
0.792333 -0.819036 4.650633 31 16 151
1.238476 -0.466736 4.313455 37 91 86
0.846701 -0.810252 4.647585 12 43 128
1.203594 -0.520975 4.365632 30 79 57
1.284701 -0.461435 4.309150 18 72 55
1.213973 -0.540452 4.389768 20 76 55
0.879581 -0.862341 4.675685 25 49 139
1.075163 -0.682819 4.521909 29 77 59
1.218218 -0.566365 4.412671 30 78 52
1.085907 -0.677370 4.523272 156 169 155
0.882575 -0.860811 4.693158 12 48 126
0.847386 -0.898060 4.735939 82 133 183
0.866135 -0.942318 4.710539 30 14 155
0.799736 -0.961717 4.794722 20 35 135
1.270062 -0.557615 4.408057 21 78 70
1.296608 -0.548858 4.395989 159 166 159
1.144238 -0.696098 4.540231 0 21 7
0.802735 -1.001061 4.845494 93 69 127
0.980768 -0.861694 4.701384 38 81 72
0.945541 -0.897377 4.730708 0 32 25
1.330143 -0.565510 4.413814 20 73 53
1.115726 -0.771471 4.605241 72 123 109
0.817381 -1.079873 4.838850 78 53 113
1.182273 -0.717260 4.558353 25 77 54
1.583608 -0.396415 4.248238 37 119 154
1.214786 -0.707247 4.556764 136 107 92
1.017342 -0.876642 4.723137 23 68 49
0.913434 -0.987164 4.825683 84 59 121
1.047229 -0.885081 4.720196 147 161 157
0.974672 -0.953693 4.791684 31 88 80
1.055984 -0.903067 4.742588 0 27 18
1.066767 -0.897094 4.734859 0 37 23
1.170772 -0.866756 4.701543 35 81 62
0.897875 -1.145461 4.976326 73 52 107
1.114004 -0.953873 4.797549 35 83 65
1.605853 -0.585808 4.436901 0 30 19
1.661073 -0.567407 4.415407 34 79 63
1.431235 -0.776094 4.625711 147 113 83
1.645826 -0.619552 4.472244 72 122 104
1.598944 -0.668176 4.516989 37 90 70
1.696113 -0.590409 4.440931 70 117 101
1.672239 -0.640059 4.494198 133 171 153
1.538059 -0.746807 4.610409 203 208 206
1.545598 -0.759151 4.612835 14 74 80
1.396309 -0.894974 4.737591 137 103 79
1.581122 -0.744370 4.596984 27 69 58
1.559454 -0.771726 4.622141 0 36 26
1.567259 -0.767917 4.618434 66 115 101
1.560778 -0.781192 4.634725 0 35 25
1.614732 -0.744536 4.598700 40 72 61
1.559500 -0.803945 4.654897 26 83 74
1.726561 -0.662462 4.517776 32 78 72
1.592908 -0.803154 4.656604 0 21 12
1.754291 -0.684713 4.536289 0 24 19
1.794992 -0.812930 4.482178 0 34 20
1.736906 -0.738457 4.586350 15 66 68
1.697551 -0.775470 4.627516 0 28 16
1.651480 -0.818665 4.669827 0 24 13
1.666618 -0.815150 4.670610 0 24 12
1.681969 -0.816685 4.669464 0 38 24
1.803889 -0.728579 4.578947 0 25 15
-0.802316 2.607871 1.260188 11 65 96
-0.848532 2.498482 1.362643 19 47 88
0.069461 3.089514 0.779246 97 93 105
0.073744 2.984178 0.860239 176 177 181
-2.983913 0.638306 3.179089 50 61 75
-3.026128 0.596121 3.233726 157 163 168
0.065739 2.717249 1.148910 38 92 125
0.151982 2.710372 1.164173 171 181 188
-0.004884 2.596718 1.273828 118 104 128
-1.157841 1.694761 2.149039 179 181 182
0.386544 2.775854 1.096298 109 102 115
-2.351588 0.729474 3.103157 167 172 173
-2.413311 0.638023 3.214924 54 61 70
-2.777131 0.311745 3.510289 167 172 173
-2.472632 0.557818 3.288389 58 63 78
-1.163628 1.444298 2.397254 147 121 134
-2.083898 0.748078 3.079060 44 52 69
0.049683 2.362844 1.526743 58 140 98
-2.644236 0.131393 3.703375 160 165 168
-2.296680 0.207458 3.620161 69 75 82
-2.382514 0.119619 3.712735 174 176 176
-2.591028 -0.085445 3.909407 162 167 170
-2.435883 0.036812 3.804319 48 53 68
-2.615556 -0.090048 3.933888 159 165 170
-2.315774 -0.074820 3.907523 65 70 69
0.932132 2.316753 1.550025 154 170 187
0.382078 1.918362 1.957350 133 176 173
-2.012581 0.027594 3.802397 38 46 63
0.043505 1.573328 2.288305 59 71 81
0.603219 1.930629 1.940248 54 73 78
0.642362 1.923611 1.948165 50 65 67
0.711031 1.902540 1.966847 43 72 76
0.756782 1.882666 1.990908 40 70 75
1.157726 1.859317 2.019829 135 180 177
-0.840537 0.233146 3.600745 146 175 184
-1.795772 -0.519416 4.356877 180 185 186
-1.698413 -0.551435 4.374722 56 61 62
-0.834383 -0.006293 3.836544 23 42 87
-1.523852 -0.582922 4.398948 143 108 165
1.109554 1.474574 2.389453 181 187 186
1.143162 1.436576 2.426574 49 60 74
-0.635091 -0.016014 3.850698 171 177 188
0.663484 0.943899 2.918239 174 185 183
1.046201 1.214579 2.636413 142 182 180
0.668372 0.921356 2.939572 153 167 166
-0.723436 -0.215987 4.041498 160 176 188
1.068016 1.232239 2.650936 143 182 180
1.278666 0.944577 2.937181 157 162 163
-0.498214 -0.530400 4.366501 123 84 169
-0.366823 -0.447236 4.277339 98 72 155
-0.359198 -0.469784 4.301250 94 68 152
1.717400 1.188789 2.668901 148 152 153
1.556338 1.069533 2.803781 188 193 196
1.488770 0.978449 2.862172 124 165 160
-0.354263 -0.490163 4.325629 100 71 156
-0.345503 -0.515411 4.347611 107 76 161
1.693406 1.128628 2.735647 171 176 175
1.694168 1.109219 2.738933 196 201 200
-0.351448 -0.560984 4.394266 109 75 152
1.167075 0.077154 3.773115 48 134 92
0.588154 -0.431306 4.267940 167 141 87
0.473567 -0.594797 4.433532 165 166 157
0.374038 -0.677738 4.515784 150 120 71
0.499572 -0.613568 4.452061 155 120 52
1.681492 0.366071 3.487401 39 121 69
0.546470 -0.616759 4.457360 177 141 81
0.637760 -0.557902 4.397418 175 140 76
0.642667 -0.562067 4.410680 182 179 164
-0.221561 -1.338631 5.143043 186 145 173
0.657467 -0.592031 4.431748 159 133 86
0.824895 -0.489264 4.332500 171 136 73
-0.033708 -1.278459 5.088785 132 106 122
0.657454 -0.689238 4.527518 165 134 73
0.740366 -0.690646 4.516391 194 188 165
0.739366 -0.693865 4.530728 170 135 62
1.201555 -0.326543 4.178700 164 177 185
0.937125 -0.581714 4.421604 163 133 68
0.811825 -0.707752 4.548726 155 126 52
0.935122 -0.601078 4.447196 162 135 79
1.072605 -0.506967 4.348816 25 87 95
1.089580 -0.522003 4.367885 170 187 173
1.132210 -0.518092 4.357604 158 175 171
1.057203 -0.583700 4.428791 20 80 80
1.065064 -0.586740 4.432780 21 80 76
1.239400 -0.436749 4.287778 42 89 86
1.086365 -0.600961 4.454174 31 85 72
1.202783 -0.521159 4.366293 21 77 56
1.103261 -0.621955 4.454148 40 93 83
1.217083 -0.566460 4.413398 25 75 51
0.897445 -0.851766 4.689136 31 110 153
1.209329 -0.588329 4.436750 35 89 66
1.199044 -0.604208 4.449836 32 84 61
1.117204 -0.685059 4.525838 29 80 72
1.004202 -0.785392 4.620619 31 80 66
1.019637 -0.789746 4.630589 162 175 173
1.151207 -0.683597 4.528492 31 76 60
1.345965 -0.537089 4.378270 166 172 177
1.326287 -0.557794 4.402006 38 92 79
1.356455 -0.534054 4.385211 23 77 70
1.246096 -0.648077 4.494675 129 100 86
1.180717 -0.715892 4.559343 27 80 60
1.216185 -0.683616 4.531928 135 99 91
1.047623 -0.832100 4.676466 167 174 177
1.540407 -0.438015 4.290331 42 110 157
0.917018 -0.988263 4.822682 80 48 125
1.639180 -0.423845 4.281341 52 116 151
1.383353 -0.647887 4.497884 135 105 94
1.591870 -0.503644 4.349453 16 121 162
1.049526 -0.965071 4.805519 34 87 73
1.325740 -0.745229 4.589731 140 102 68
1.173473 -0.890355 4.724556 43 88 69
1.164008 -0.914354 4.752254 18 71 51
1.115224 -0.955828 4.795117 35 83 65
1.472527 -0.675395 4.524865 137 100 74
1.343532 -0.785567 4.637671 146 111 85
1.544049 -0.641291 4.491203 0 29 17
1.480644 -0.699327 4.547536 138 99 71
1.352646 -0.808442 4.657378 145 110 100
1.393841 -0.805879 4.652995 178 177 173
1.410637 -0.804580 4.652843 137 102 89
1.336843 -0.881937 4.730628 147 111 87
1.630893 -0.645100 4.501526 30 80 56
1.501465 -0.766579 4.617934 142 104 80
1.672365 -0.643900 4.493460 126 158 141
1.545241 -0.780966 4.638061 22 76 71
1.512294 -0.813568 4.664932 136 101 67
1.489311 -0.840389 4.692459 129 105 93
1.614173 -0.743650 4.600654 34 75 60
1.560102 -0.802101 4.655267 28 85 76
1.726895 -0.662669 4.518231 30 77 69
2.126752 -0.351828 4.205722 126 106 141
1.658076 -0.755503 4.611151 31 80 64
1.600194 -0.818759 4.674161 32 81 67
1.729184 -0.731530 4.581102 154 165 169
1.711645 -0.745542 4.600899 144 155 153
1.723115 -0.747953 4.603381 19 71 78
-2.784215 2.573440 1.285985 71 80 93
-4.025194 1.318763 2.534706 167 164 190
-1.695815 2.809687 1.032570 169 175 174
-1.521023 2.876049 0.978253 163 171 171
0.208464 3.314062 0.548588 174 173 182
-1.224203 2.198631 1.665272 130 116 174
0.179437 2.283883 1.608045 60 140 97
-2.066554 0.391777 3.442783 88 94 93
0.958448 2.374581 1.499569 164 188 216
-0.910140 0.176280 3.647760 178 184 189
-1.561927 -0.572421 4.408204 141 104 166
0.823169 0.902588 2.966991 34 54 65
1.519267 1.005823 2.852649 42 50 67
1.131522 0.208784 3.634792 47 136 96
0.699065 -0.424150 4.268955 184 150 91
0.545690 -0.554237 4.402202 161 129 58
0.890193 -0.424963 4.269014 72 66 31
0.855093 -0.473533 4.309045 180 145 81
0.829792 -0.493434 4.331260 170 141 72
0.931629 -0.559058 4.398457 152 117 51
0.908835 -0.636975 4.475981 166 134 68
0.853490 -0.696264 4.536025 178 176 165
0.874339 -0.687567 4.528876 179 142 80
1.129102 -0.515927 4.361909 165 168 166
0.965232 -0.669309 4.514451 19 75 70
1.084833 -0.582486 4.428547 26 79 66
0.993094 -0.676279 4.525205 29 81 64
1.092271 -0.604677 4.452042 28 84 73
1.025980 -0.668187 4.524401 28 77 61
0.972638 -0.730904 4.573885 19 72 58
0.923178 -0.770892 4.612967 27 84 75
1.215748 -0.565840 4.413664 23 75 52
1.203700 -0.586004 4.438142 31 87 68
1.053872 -0.774321 4.609671 26 74 62
1.372107 -0.521331 4.368957 22 77 58
1.328525 -0.563477 4.409641 24 80 61
1.227082 -0.655784 4.507033 138 104 91
1.133724 -0.745001 4.584220 27 76 60
1.217289 -0.685086 4.531375 141 99 86
1.143016 -0.759028 4.599116 158 169 161
1.518224 -0.438727 4.290277 165 175 182
1.062067 -0.823997 4.671757 17 69 59
0.980117 -0.896365 4.741814 33 86 73
1.267443 -0.665302 4.512977 159 160 151
1.540294 -0.436746 4.290111 41 113 160
0.921364 -0.994599 4.819019 86 53 134
1.226166 -0.733424 4.577065 138 97 74
1.297917 -0.676085 4.520415 148 110 80
1.231456 -0.753124 4.602970 150 111 83
1.082510 -0.884500 4.730839 33 84 70
1.055031 -0.911687 4.755439 31 82 68
1.025315 -0.942063 4.784290 27 80 67
1.639594 -0.432974 4.284799 31 114 159
1.381402 -0.663263 4.511610 141 100 85
1.321783 -0.744463 4.590525 140 101 69
1.389098 -0.679207 4.536876 142 106 82
1.181724 -0.874599 4.712990 154 166 148
1.082153 -0.956474 4.806260 30 84 67
1.452978 -0.651570 4.501352 145 104 81
1.329974 -0.766403 4.614190 136 97 65
1.654606 -0.494650 4.348259 20 121 159
1.340201 -0.787322 4.637064 137 100 78
1.422560 -0.751299 4.604415 146 107 79
1.426741 -0.776738 4.625897 150 110 85
1.629367 -0.649339 4.500067 26 76 52
1.695834 -0.644554 4.492872 27 79 62
1.582104 -0.741107 4.601552 34 80 67
1.708823 -0.657696 4.507370 150 164 160
1.561854 -0.804580 4.652794 23 78 69
1.731622 -0.662024 4.517025 28 77 63
1.728182 -0.700459 4.551879 167 185 186
1.728099 -0.731262 4.578959 155 165 165
1.631887 -0.592431 4.445108 17 69 51
1.639017 -0.620690 4.467933 31 82 62
1.606782 -0.766884 4.619406 31 80 64
-2.826530 2.552539 1.273460 163 171 171
-3.612317 2.088769 1.759164 26 26 40
-1.680587 2.816475 1.039291 169 175 174
-1.648788 2.751063 1.113098 85 118 133
-1.161065 1.686233 2.140299 173 178 179
-2.455528 0.567621 3.274705 49 56 75
-2.260473 0.248761 3.589714 100 105 106
-2.359067 -0.010079 3.838755 168 173 172
0.314479 1.896690 1.970406 71 83 83
-0.986625 -0.082543 3.900075 170 179 182
0.658386 0.910763 2.954545 51 73 79
0.919245 1.094530 2.768775 37 76 74
1.517682 1.008310 2.854855 43 50 65
2.150900 1.111968 2.748412 82 111 126
1.306499 0.273368 3.549236 160 175 167
2.158805 0.950292 2.916656 72 104 123
0.476329 -0.588094 4.427424 166 169 167
0.835850 -0.504743 4.327075 168 140 75
0.970212 -0.675444 4.510946 22 78 73
1.259394 -0.447802 4.284316 19 70 62
1.181574 -0.529298 4.366037 29 83 70
0.849112 -0.810418 4.647115 13 55 130
1.093665 -0.675637 4.513341 168 176 166
1.274809 -0.567168 4.401984 22 77 68
1.016964 -0.793110 4.635505 160 171 169
1.045552 -0.787506 4.622760 9 56 53
1.342935 -0.538726 4.375210 170 178 177
0.928082 -0.885950 4.738884 20 74 75
1.486899 -0.459045 4.313235 168 181 183
1.454009 -0.505157 4.360812 23 113 168
1.220146 -0.709305 4.554150 149 108 85
1.224620 -0.731323 4.578627 149 112 90
1.231921 -0.758196 4.600143 148 110 86
1.381119 -0.661468 4.511085 146 107 92
