ply
        format ascii 1.0
        element vertex 4790
        property float x
        property float y
        property float z
        property uchar red
        property uchar green
        property uchar blue
        end_header
1.439889 -0.293122 4.133610 191 182 202
1.350225 -0.378657 4.221368 93 74 113
0.772281 -0.915916 4.737196 24 51 138
1.367749 -0.423178 4.262045 99 73 126
1.391420 -0.404027 4.243772 132 115 149
1.430332 -0.378017 4.217536 83 54 110
1.455156 -0.358582 4.197965 108 78 131
1.465853 -0.362409 4.203376 77 38 124
1.148459 -0.727514 4.555490 75 124 110
1.080303 -0.949265 4.774393 6 50 44
1.550217 -0.607637 4.443438 0 32 24
-4.499160 1.233903 2.245935 75 66 76
-2.930867 2.964802 0.869437 78 69 109
-2.573767 3.087940 0.763604 70 74 92
-3.626558 2.169160 1.669601 169 168 172
-4.318910 -0.083267 3.075300 38 33 42
-4.241833 1.575985 2.231867 157 154 170
-4.201855 1.631493 2.194026 167 164 180
-2.800820 2.598428 1.262082 66 78 84
-2.796603 2.562468 1.291669 71 82 90
-2.768165 2.476912 1.362630 63 72 85
-3.792101 1.709262 2.118410 177 174 189
-4.324431 0.349433 3.071085 134 132 132
-3.704164 -0.191742 3.355517 9 9 9
-3.681140 -0.223544 3.379491 7 7 7
-0.955082 2.498305 1.350683 173 181 188
-3.016994 0.594332 3.221012 170 173 177
-3.021536 0.453552 3.368870 64 72 85
-0.423523 2.056184 1.794339 170 178 177
-2.619387 0.393187 3.421638 175 180 179
-2.373431 0.200383 3.625429 39 45 56
-0.668719 1.319440 2.529217 75 95 83
-0.663029 1.273245 2.565128 55 60 153
-2.302135 -0.049421 3.867908 184 184 184
-0.618120 1.196867 2.629162 58 67 165
-0.620636 1.170294 2.672370 43 27 164
-2.879460 -0.584780 4.409222 168 136 190
-0.490568 1.176464 2.676203 38 13 157
0.667824 1.883350 1.955711 125 171 165
0.710972 1.515754 2.328588 133 179 173
-1.835019 -0.504251 4.343159 84 89 88
0.569459 1.244645 2.595114 44 55 69
0.888830 1.147043 2.697346 130 173 170
0.650983 0.925927 2.911780 33 45 57
0.939388 1.150705 2.696054 137 173 173
1.077602 1.231964 2.609562 46 67 82
1.063171 1.221090 2.624542 43 55 73
0.676760 0.906027 2.939979 55 66 70
0.672189 0.887721 2.950816 75 156 111
0.922079 1.082121 2.761323 19 39 44
0.378958 0.657804 3.181543 26 127 179
0.926966 1.056087 2.781207 31 51 56
0.916327 1.045824 2.798095 4 38 31
0.891624 1.024139 2.820080 20 52 58
0.941038 1.032814 2.816001 57 132 104
0.751511 0.847244 2.985234 51 138 80
0.760971 0.844575 2.999834 50 63 79
0.953990 0.972216 2.860284 44 133 100
0.961642 0.964282 2.882904 127 164 160
0.959103 0.944097 2.897651 25 47 59
0.980040 0.898415 2.941483 21 34 50
1.024709 0.907170 2.934036 133 173 171
1.024588 0.892436 2.946561 37 48 68
1.049689 0.896944 2.944690 175 182 191
1.594124 1.058253 2.784541 174 179 180
1.261180 0.627094 3.226019 50 125 93
0.441672 -0.545185 4.373920 60 47 21
0.655193 -0.563125 4.393602 165 132 69
0.633297 -0.638749 4.465926 173 147 93
1.321420 -0.287591 4.130159 165 164 173
1.069689 -0.559759 4.389416 16 71 54
0.988924 -0.650800 4.479746 75 125 113
1.091499 -0.570511 4.408160 171 178 171
1.289554 -0.450069 4.292969 34 88 71
1.128032 -0.615366 4.449512 33 86 72
1.387196 -0.413794 4.254683 97 51 133
1.472054 -0.375165 4.213934 177 170 185
1.479338 -0.369415 4.210380 96 56 127
1.017654 -0.787850 4.611454 169 180 172
1.144216 -0.678064 4.511979 38 75 65
1.170130 -0.691491 4.520173 36 78 60
1.370456 -0.517593 4.353898 18 75 50
1.614266 -0.648173 4.477774 64 112 94
1.649983 -0.623097 4.463568 0 34 21
1.652723 -0.633639 4.475770 30 79 59
-4.352815 0.027973 2.979162 40 35 44
-3.632822 2.168705 1.672652 177 177 183
-3.632710 2.123455 1.698262 167 167 173
-4.317171 -0.053504 3.071823 123 118 127
-4.202320 1.627675 2.196498 162 160 179
-2.802359 2.569886 1.291311 71 82 90
-3.799187 1.710181 2.120917 176 175 184
-4.264330 1.337258 2.462873 174 173 182
-4.351108 0.289863 3.016811 56 53 62
-3.859360 1.589433 2.233664 167 166 182
-3.691499 -0.364146 3.499031 132 131 135
-4.040530 -0.512575 3.695015 4 3 5
-3.756386 -0.399303 3.561261 113 114 118
-4.222519 0.406801 3.404801 64 67 72
-3.089051 0.524842 3.302536 167 172 171
-0.107157 2.533930 1.291894 65 69 80
-2.978721 0.332164 3.479211 69 72 86
-2.752719 0.464583 3.334225 33 40 59
-2.660794 0.408547 3.410106 79 83 84
-2.089057 0.677342 3.138220 43 49 68
-2.073202 0.586577 3.242691 66 71 74
-2.799673 -0.003951 3.835044 173 174 178
-0.835052 1.347590 2.496872 175 182 179
-2.264086 0.240429 3.583650 55 60 59
-2.346018 0.129484 3.682477 172 173 177
-2.576626 -0.025570 3.854463 176 179 183
-0.651084 1.355852 2.482296 168 176 175
-0.732020 1.293157 2.548118 168 179 169
-0.666073 1.348878 2.500190 63 86 72
-0.587929 1.344276 2.496575 176 183 178
-0.643243 1.206653 2.632253 53 61 150
-0.398039 1.236938 2.600644 186 193 196
-0.410597 1.190157 2.648180 49 61 169
0.591505 1.905788 1.942282 126 171 168
0.825921 1.998264 1.827611 45 53 60
-0.328529 1.068465 2.775772 148 178 205
-0.283978 0.946450 2.889009 60 67 178
1.078684 1.880200 1.952035 124 173 171
0.437059 1.335866 2.498895 134 181 173
0.675072 1.527931 2.332648 132 170 170
1.167751 1.846515 1.999981 35 51 64
1.064114 1.437331 2.399141 21 37 49
0.337843 0.624186 3.211839 196 198 208
0.666480 0.875556 2.971861 45 128 90
1.098589 1.224260 2.635598 128 171 168
0.940063 1.031925 2.818271 45 132 96
0.712621 0.835439 3.011583 174 181 178
0.818593 0.839923 3.000808 182 187 186
0.891070 0.875585 2.978598 45 49 68
1.002406 0.894839 2.938479 130 165 161
1.024608 0.907726 2.933216 137 178 173
1.021298 0.897910 2.947526 34 45 67
1.074543 0.902491 2.936874 173 179 178
1.225534 0.923210 2.914511 29 35 58
1.527141 1.142019 2.706822 33 42 51
-0.516651 -0.496611 4.332664 122 86 162
1.471416 0.957740 2.886514 176 181 184
0.401157 -0.696785 4.237940 72 67 66
0.803627 -0.085308 3.930260 118 96 60
1.181366 0.104187 3.741975 34 128 74
0.641149 -0.643352 4.478948 178 179 163
0.535237 -0.732080 4.569356 171 144 70
0.675060 -0.660316 4.485223 166 137 68
0.874365 -0.600017 4.441567 160 132 68
0.681660 -0.809331 4.621744 32 64 153
1.252615 -0.430486 4.270868 36 80 74
1.081363 -0.578069 4.411809 33 87 74
1.260376 -0.450062 4.288563 28 80 63
1.270202 -0.492977 4.327065 11 67 68
1.296306 -0.478591 4.316205 17 73 54
1.204349 -0.593812 4.432216 159 178 159
1.114729 -0.694304 4.519541 0 38 25
1.368207 -0.516798 4.354908 22 78 55
1.449682 -0.456301 4.296097 34 110 152
1.351838 -0.547115 4.385343 44 95 75
1.510973 -0.439963 4.280758 168 180 190
1.273075 -0.646296 4.482371 155 111 87
1.212294 -0.705357 4.540109 137 103 79
1.373753 -0.660844 4.495808 124 104 93
1.636904 -0.478850 4.320995 30 112 154
1.596117 -0.589620 4.430918 58 110 93
1.654078 -0.633971 4.474127 24 73 53
0.523098 -1.784765 5.580111 171 164 197
-3.625985 2.131594 1.692962 166 165 174
-4.401089 0.353212 2.872580 82 73 76
-4.194890 1.611012 2.200792 163 163 177
-4.011056 1.690070 2.132892 171 173 183
-2.755383 2.476039 1.357360 68 81 95
-3.803957 1.701082 2.126898 175 174 184
-3.539650 1.705902 2.118271 174 176 184
-4.224575 0.408309 3.405832 52 55 60
-0.983461 2.512568 1.340661 173 181 181
-2.059402 0.576754 3.238086 62 66 71
-3.517551 -0.691116 4.480420 72 56 90
-2.266224 0.228656 3.611004 177 179 180
-2.980523 -0.526317 4.338337 176 170 181
-0.608516 1.196728 2.664755 172 177 180
0.055201 1.552772 2.305538 172 180 180
0.659117 1.899768 1.938496 63 77 89
0.031125 1.090315 2.745314 116 137 139
0.846733 1.044508 2.788972 64 88 100
1.616491 1.059459 2.758328 173 179 178
0.636232 -0.570731 4.390609 182 179 174
1.008451 -0.269704 4.116697 69 94 96
0.716419 -0.633385 4.459791 167 143 85
0.875768 -0.601240 4.440724 160 132 68
0.893508 -0.672792 4.509353 163 131 56
0.908480 -0.745951 4.577133 23 79 74
1.359097 -0.498358 4.341752 46 99 90
1.513046 -0.497439 4.339124 27 114 171
1.587185 -0.462596 4.303194 21 109 156
-0.589824 1.313648 2.544844 168 176 176
0.747113 0.836106 3.012402 174 176 176
-3.969337 1.724880 2.104877 115 75 176
-3.783214 1.769722 2.040924 176 179 183
-3.970878 1.287709 2.529115 173 176 180
-1.609687 2.794463 1.082280 94 123 138
-2.331491 2.008639 1.810888 174 182 181
-4.227691 0.317134 3.522662 158 163 162
-3.727798 0.320506 3.481611 88 115 135
-3.165029 0.452459 3.363152 44 50 69
-2.689167 0.442433 3.389156 173 178 179
-2.200777 0.438439 3.396765 181 183 183
-0.733745 1.351934 2.499363 175 180 179
-2.990821 -0.517181 4.332452 181 177 189
-2.440511 -0.112489 3.930784 61 66 65
-0.466012 1.183210 2.654000 173 176 184
-0.432978 1.205812 2.639222 55 59 164
1.197691 1.702151 2.145756 51 67 80
0.769912 0.878726 2.942930 132 181 173
0.570940 0.275723 3.567809 29 58 102
1.048942 -0.331388 4.146876 71 91 96
0.645667 -0.658532 4.483124 180 181 172
1.048620 -0.335460 4.178771 67 87 92
1.809510 0.240941 3.602081 38 124 70
1.212946 -0.287109 4.145114 35 114 171
1.331665 -0.328453 4.170293 93 43 131
1.077276 -0.538021 4.381392 166 175 162
1.164926 -0.553611 4.389021 165 171 170
1.362101 -0.504624 4.348914 40 96 75
1.565537 -0.431020 4.279834 35 107 154
-3.523306 1.830830 2.020969 176 181 184
-4.270189 0.243978 3.079412 152 147 148
-0.767821 2.588384 1.252254 71 128 160
-2.355103 1.404745 2.420302 109 130 181
-3.731917 0.312854 3.484030 84 116 135
0.771832 0.884482 2.934283 134 185 177
0.532570 -0.483631 4.324383 48 135 169
1.060475 -0.513780 4.340143 21 83 83
1.192940 -0.520059 4.351138 29 84 69
1.259975 -0.681925 4.499281 172 173 169
-4.132550 0.783678 2.894460 177 179 179
-3.854727 1.115301 2.668852 177 180 184
-3.895444 -0.471654 3.637249 3 3 3
-2.412678 -0.022151 3.830137 169 171 171
-2.647352 -0.968127 4.768971 174 178 179
1.288204 0.619050 3.241744 48 134 74
-0.271638 -1.289145 5.113282 67 44 82
0.120264 -1.601591 5.386272 134 69 138
0.974302 -0.890758 4.684876 47 101 88
1.101358 0.183744 3.656021 181 187 186
1.279611 0.205976 3.645032 174 181 178
0.977799 -0.907289 4.701756 38 90 83
1.444664 -0.289030 4.125702 178 165 197
1.410517 -0.299139 4.138566 108 88 130
1.275040 -0.370160 4.208113 183 165 204
1.397598 -0.393011 4.232655 80 55 115
1.541227 -0.612110 4.453421 0 26 20
0.619702 -0.795504 4.618745 27 21 152
1.150979 -0.695124 4.529972 0 29 15
1.766449 -0.598440 4.436189 55 92 72
1.098181 -0.739618 4.569128 0 30 16
1.692967 -0.629237 4.468478 0 22 6
1.671239 -0.632879 4.472610 27 74 58
0.693491 -0.826333 4.651803 13 24 138
1.780165 -0.646548 4.483500 0 43 25
1.739257 -0.670538 4.509058 0 30 21
0.790867 -0.886866 4.712064 23 33 140
0.726829 -0.926119 4.749671 30 66 142
0.994580 -0.883248 4.712313 0 30 22
1.666494 -0.752583 4.595165 75 91 84
1.703497 -0.767904 4.604492 0 36 23
0.737702 -0.971774 4.794863 14 49 135
1.598960 -0.804608 4.645496 0 30 18
0.916530 -0.981881 4.801736 85 62 116
0.817219 -1.055480 4.878139 106 71 138
0.073208 3.062838 0.776749 97 93 105
-2.642220 2.804907 1.009365 65 74 84
-3.127457 2.763667 1.052693 94 99 108
0.308760 2.788396 1.044425 113 107 118
0.388330 2.751624 1.091124 109 102 115
-0.004424 2.698589 1.149009 51 93 128
0.602273 1.917628 1.930918 54 73 78
0.620873 1.910283 1.943950 137 178 173
0.754338 1.870237 1.981034 40 70 75
1.053668 1.765114 2.081491 28 60 55
1.105102 1.466456 2.378148 181 187 186
1.097481 1.454446 2.393750 34 51 60
1.065007 1.220069 2.639471 143 182 180
1.711167 1.180778 2.656214 148 152 153
1.549645 1.069730 2.789401 188 193 196
-2.385835 0.518738 3.296988 101 107 126
0.697255 0.834062 3.002893 54 76 87
-2.241921 0.224084 3.581339 80 86 85
-2.624883 0.124517 3.686386 166 171 174
-2.327174 0.118652 3.682233 171 173 174
-2.591423 -0.099058 3.917494 159 165 170
1.674526 0.366106 3.473105 39 121 69
1.653392 0.341226 3.496846 145 178 157
1.149773 0.205332 3.632275 165 188 174
2.312252 0.061468 3.780388 22 20 40
2.303822 0.051876 3.788140 19 13 36
-0.364537 -0.447248 4.260950 98 72 155
-0.356831 -0.469673 4.284481 103 79 157
-0.322121 -0.544756 4.362855 171 167 186
0.699473 -0.422056 4.252076 178 143 87
0.435006 -0.477983 4.307033 157 125 72
1.576386 -0.393577 4.232647 37 119 154
1.279010 -0.456815 4.293962 18 72 55
1.064020 -0.498118 4.335168 25 85 97
1.196862 -0.515866 4.351012 30 79 57
1.288867 -0.541746 4.382286 159 166 159
1.211585 -0.561524 4.397807 30 78 52
1.263340 -0.552365 4.393374 21 78 70
0.803941 -0.699404 4.535159 146 117 48
1.653836 -0.562665 4.400245 34 79 63
1.068208 -0.676184 4.507736 29 77 59
1.079541 -0.673414 4.507914 156 169 155
1.598505 -0.581230 4.421765 0 30 19
1.137811 -0.691873 4.524864 0 21 7
1.175804 -0.712845 4.542941 25 77 54
1.208260 -0.702233 4.541629 136 107 92
1.664614 -0.635335 4.479041 133 171 153
0.786093 -0.812232 4.636273 31 16 151
1.591542 -0.664298 4.501134 37 90 70
0.841617 -0.806038 4.631601 12 43 128
1.108793 -0.762827 4.591725 72 123 109
1.718853 -0.658721 4.501771 32 78 72
0.871081 -0.842166 4.667696 25 49 139
1.746197 -0.680821 4.520666 0 24 19
0.875728 -0.853179 4.679217 12 48 126
1.573424 -0.737771 4.582574 27 69 58
1.530802 -0.742724 4.594418 203 208 206
1.423983 -0.770553 4.610650 147 113 83
1.606865 -0.739747 4.583522 40 72 61
0.851797 -0.892580 4.718044 30 14 155
0.842045 -0.893827 4.719839 82 133 183
1.729210 -0.733250 4.571089 15 66 68
1.559779 -0.762870 4.603154 66 115 101
1.796227 -0.723235 4.563683 0 25 15
0.939485 -0.890566 4.715978 0 32 25
1.553403 -0.776008 4.619396 0 35 25
1.060873 -0.891418 4.719451 0 37 23
1.689859 -0.771168 4.611564 0 28 16
1.050091 -0.898140 4.726741 0 27 18
1.552323 -0.798578 4.639497 26 83 74
1.585203 -0.798097 4.641327 0 21 12
1.643778 -0.812960 4.654710 0 24 13
0.968913 -0.949066 4.775563 31 88 80
1.658860 -0.809924 4.655307 0 24 12
1.674332 -0.811151 4.654213 0 38 24
1.388670 -0.888354 4.722997 137 103 79
0.908072 -0.982253 4.809515 84 59 121
1.107754 -0.949010 4.781570 35 83 65
0.802532 -1.027651 4.850041 78 53 113
-2.341085 0.158614 3.648147 153 157 158
0.076908 2.960671 0.857924 176 177 181
0.153714 2.689141 1.158731 171 181 188
-0.841711 2.480663 1.357382 19 47 88
0.053135 2.340343 1.521866 58 140 98
0.602242 1.916852 1.930706 54 73 78
0.641197 1.909793 1.938676 50 65 67
0.709192 1.889646 1.957228 43 72 76
-1.156144 1.433311 2.387425 147 121 134
1.138951 1.429474 2.414350 49 60 74
-2.334132 0.718427 3.091508 167 172 173
-2.067534 0.737049 3.067402 44 52 69
-2.999602 0.583130 3.222125 157 163 168
-2.408116 0.666734 3.162627 100 106 105
-2.388889 0.575927 3.218331 53 60 69
1.512942 1.000806 2.839724 42 50 67
1.273012 0.940441 2.924157 157 162 163
-2.949682 0.369054 3.427980 116 124 137
-2.363888 0.111371 3.697916 174 176 176
-0.836753 0.230352 3.586954 146 175 184
-2.084574 0.062565 3.748164 45 53 60
-2.412555 0.024829 3.788025 53 59 72
-0.907149 -0.016413 3.831880 188 198 205
-0.754726 0.002008 3.815125 16 28 70
-0.669077 -0.010923 3.824039 170 182 194
-1.946806 -0.539013 4.343743 135 106 161
-1.780968 -0.523072 4.339042 180 185 186
-0.366191 -0.447096 4.261348 98 72 155
-0.358578 -0.469572 4.285170 94 68 152
-0.496315 -0.530242 4.349977 123 84 169
-0.345098 -0.515403 4.331244 107 76 161
-0.350283 -0.560166 4.377885 109 75 152
0.583969 -0.428538 4.252753 167 141 87
1.195402 -0.324048 4.163373 164 177 185
0.820104 -0.485613 4.317253 171 136 73
1.232326 -0.431064 4.273574 42 89 86
1.532901 -0.435449 4.274922 42 110 157
1.083422 -0.518328 4.352812 170 187 173
0.542803 -0.614347 4.441319 177 141 81
1.631814 -0.420883 4.265681 52 116 151
1.075533 -0.533081 4.370327 167 177 164
1.196328 -0.517309 4.351213 21 77 56
1.270211 -0.507649 4.345850 30 85 66
0.930718 -0.573181 4.408199 163 133 68
0.369277 -0.671242 4.501376 150 120 71
0.929744 -0.597410 4.431595 162 135 79
1.338865 -0.531877 4.363650 166 172 177
1.051208 -0.579827 4.413535 20 80 80
1.059039 -0.583397 4.417270 21 80 76
1.349586 -0.529999 4.370184 23 77 70
1.584569 -0.500031 4.333968 16 121 162
1.210404 -0.560721 4.398910 25 75 51
1.264686 -0.551486 4.393933 21 76 67
1.319258 -0.551696 4.387699 38 92 79
1.080507 -0.597639 4.438579 31 85 72
1.202850 -0.584259 4.421511 35 89 66
0.654558 -0.689172 4.509969 165 134 73
1.096063 -0.611753 4.441464 40 93 83
0.733651 -0.677973 4.504611 194 188 165
1.192720 -0.599910 4.434606 32 84 61
0.734257 -0.689287 4.515350 170 135 62
1.239266 -0.641918 4.480210 129 100 86
1.145399 -0.678849 4.513027 31 76 60
1.376496 -0.643256 4.482649 135 105 94
1.537177 -0.636273 4.475928 0 29 17
1.174606 -0.712643 4.543630 27 80 60
1.157584 -0.727893 4.564298 31 82 62
1.623199 -0.641157 4.486016 30 80 56
1.664740 -0.638816 4.478415 126 158 141
1.214569 -0.726647 4.564873 133 100 81
1.014199 -0.786138 4.613951 162 175 173
1.719568 -0.658461 4.502519 30 77 69
0.891983 -0.847471 4.673171 31 110 153
1.041497 -0.826999 4.661019 167 174 177
1.729973 -0.703955 4.550041 20 74 69
0.974411 -0.858381 4.685338 27 77 67
1.494157 -0.761599 4.602619 142 104 80
1.606779 -0.739041 4.585152 34 75 60
1.345680 -0.803567 4.641868 145 110 100
1.386880 -0.800740 4.637600 178 177 173
1.703938 -0.741234 4.585036 144 155 153
1.403497 -0.799645 4.637418 137 102 89
1.650229 -0.751288 4.595473 31 80 64
1.715375 -0.744015 4.587230 19 71 78
1.537523 -0.777370 4.622052 22 76 71
1.552752 -0.797872 4.639213 28 85 76
1.166363 -0.883790 4.709922 43 88 69
1.481954 -0.835273 4.677032 129 105 93
1.592735 -0.814450 4.658094 32 81 67
1.330010 -0.876688 4.715079 147 111 87
0.911550 -0.983634 4.806375 80 48 125
1.043846 -0.961836 4.788656 34 87 73
1.109128 -0.950840 4.779146 35 83 65
-0.033874 -1.273427 5.071022 132 106 122
1.512207 1.002326 2.841702 43 50 65
0.818980 0.899095 2.954148 34 54 65
-2.051407 0.383989 3.429689 88 94 93
-0.907466 0.173102 3.633883 178 184 189
1.125642 0.211317 3.620809 47 136 96
2.324874 0.078809 3.769472 145 139 164
0.884391 -0.419108 4.254792 72 66 31
0.849880 -0.470189 4.293796 180 145 81
0.823996 -0.486654 4.317318 170 141 72
0.545202 -0.559272 4.383038 161 129 58
1.511151 -0.435383 4.274859 165 175 182
1.533226 -0.432739 4.275080 41 113 160
1.632448 -0.428798 4.269731 31 114 159
1.365130 -0.516106 4.354341 22 77 58
1.079073 -0.577222 4.413698 26 79 66
1.209267 -0.562315 4.398263 23 75 52
1.647193 -0.490364 4.333166 20 121 159
0.902438 -0.627986 4.462739 166 134 68
1.086428 -0.599641 4.437064 28 84 73
0.868452 -0.684405 4.513197 179 142 80
0.848366 -0.691974 4.520442 178 176 165
0.987505 -0.672415 4.509449 29 81 64
1.020300 -0.664572 4.508522 28 77 61
1.260733 -0.661541 4.497392 159 160 151
0.966913 -0.726757 4.558231 19 72 58
1.291090 -0.670669 4.505558 148 110 80
1.374379 -0.657886 4.496751 141 100 85
1.621939 -0.644773 4.484800 26 76 52
1.126589 -0.738273 4.569987 27 76 60
1.688213 -0.639721 4.477696 27 79 62
1.046505 -0.766551 4.595982 26 74 62
1.700880 -0.651213 4.493085 150 164 160
1.224908 -0.748536 4.587393 150 111 83
1.723872 -0.656858 4.501956 28 77 63
1.315086 -0.739378 4.575254 140 101 69
1.323093 -0.761663 4.598714 136 97 65
1.415534 -0.746402 4.589035 146 107 79
1.720184 -0.696383 4.536291 167 185 186
1.056169 -0.819060 4.656140 17 69 59
1.333504 -0.783104 4.621306 137 100 78
1.419534 -0.770932 4.610991 150 110 85
1.720189 -0.725153 4.564327 155 165 165
1.599180 -0.761084 4.604513 31 80 64
1.497592 -0.783205 4.627647 132 98 69
1.076452 -0.879684 4.715043 33 84 70
1.553998 -0.798268 4.638186 23 78 69
0.913861 -0.985779 4.805663 86 53 134
1.076934 -0.956191 4.787748 30 84 67
2.284924 0.032009 3.814129 27 19 49
1.019506 -0.936844 4.768497 27 80 67
-1.667687 2.793923 1.035612 169 175 174
-2.809237 2.534170 1.270199 163 171 171
-1.407426 1.721366 2.105621 171 179 178
-1.153238 1.675648 2.131639 173 178 179
0.657587 0.897174 2.942227 51 73 79
-2.243319 0.240359 3.575660 100 105 106
-0.942856 -0.024680 3.822695 163 176 184
2.622947 0.266556 3.578730 167 164 180
-1.549843 -0.575580 4.390099 141 104 166
0.828559 -0.490771 4.315611 168 140 75
0.468885 -0.553996 4.387572 169 177 167
1.253006 -0.444245 4.269088 19 70 62
1.479778 -0.454480 4.298445 168 181 183
1.175017 -0.526844 4.350436 29 83 70
1.446929 -0.501122 4.345760 23 113 168
1.336100 -0.534628 4.360047 170 178 177
1.268784 -0.562464 4.386764 22 77 68
1.028221 -0.641787 4.464522 19 73 56
0.964415 -0.671464 4.495499 22 78 73
1.087718 -0.671930 4.497531 168 176 166
1.374388 -0.656169 4.495890 146 107 92
1.530092 -0.639328 4.477669 17 73 68
1.213746 -0.704473 4.538863 149 108 85
0.825714 -0.777741 4.613111 50 102 172
1.463532 -0.671562 4.508142 142 102 77
1.548526 -0.650325 4.500229 26 80 67
1.641604 -0.634847 4.492630 150 158 147
1.218047 -0.726819 4.563167 149 112 90
0.844021 -0.806238 4.631113 13 55 130
1.470967 -0.696657 4.530096 150 109 86
1.037998 -0.779252 4.609336 9 56 53
1.224824 -0.752089 4.585516 148 110 86
1.478081 -0.719935 4.553293 148 104 80
1.420642 -0.775171 4.608790 151 110 87
1.545956 -0.748716 4.597576 37 90 87
1.366868 -0.793530 4.626637 162 162 156
1.392542 -0.781423 4.629044 173 171 170
1.413500 -0.795815 4.638089 145 105 77
1.543798 -0.778624 4.619285 14 68 61
1.501447 -0.816671 4.644336 147 111 87
1.496607 -0.843807 4.668662 143 104 76
-0.908100 2.469982 1.371185 56 66 113
-2.130445 2.063628 1.749045 67 149 107
1.476815 0.965545 2.869871 103 113 123
-0.991235 -0.074673 3.876330 176 181 184
1.476543 -0.460320 4.307769 167 179 181
1.643179 -0.485704 4.318811 38 130 181
1.152483 -0.591082 4.402633 171 176 174
1.351425 -0.547134 4.381092 31 87 66
1.088170 -0.603223 4.431933 33 87 74
1.250854 -0.661079 4.471251 142 106 82
1.547159 -0.775935 4.618246 27 81 74
0.960019 -0.939751 4.758158 18 73 64
1.110512 -0.965488 4.761070 40 92 75
1.155694 -0.544033 4.373140 167 170 168
1.043679 -0.360347 4.182705 62 84 89
0.488110 -0.574531 4.401436 192 195 193
1.307360 -0.531180 4.357320 163 169 164
1.320197 -0.551199 4.401352 28 84 63
1.154017 -0.708781 4.528166 22 72 60
0.925131 -0.849563 4.663445 162 168 167
1.629908 0.299563 3.485072 43 131 71
1.775826 0.277051 3.589094 41 129 76
1.125052 -0.548900 4.384844 164 169 167
1.408149 -0.632411 4.480246 145 105 80
1.132155 -0.702872 4.538994 22 74 57
0.925238 -0.827217 4.651723 175 181 180
-0.755652 -0.882895 4.689382 133 92 124
0.887676 2.432863 1.401381 79 98 106
2.946460 1.320301 2.535671 178 183 182
0.729540 -0.738644 4.562353 29 34 143
0.718956 -0.833710 4.660609 25 29 131
2.111004 2.621236 1.249349 165 157 187
-0.342423 2.666685 1.165862 25 47 65
0.953230 2.359906 1.492479 125 169 193
2.224443 2.131114 1.740263 164 161 193
1.859248 2.088664 1.785146 162 168 187
0.262580 2.171321 1.662042 55 126 93
2.342272 1.767876 2.097319 108 88 161
0.997299 1.904519 1.944233 127 170 167
0.816355 1.876085 1.968432 40 84 78
0.212048 1.763274 2.070436 147 191 184
0.236029 1.585169 2.230182 23 58 61
0.205856 1.575963 2.244325 26 46 57
2.876525 1.122910 2.735380 51 61 71
0.115449 1.474980 2.347193 183 189 188
1.390670 1.288317 2.571718 133 179 173
0.197631 1.410220 2.409456 167 188 186
1.495537 1.180100 2.673495 125 167 166
2.280519 1.064244 2.808007 168 174 173
1.536736 1.069779 2.778800 29 41 53
0.893216 1.113942 2.698499 143 175 174
0.999299 0.882024 2.939166 137 169 168
0.997632 0.870234 2.957021 34 43 57
0.826375 0.867431 2.955605 16 41 45
0.676814 0.841023 2.976132 130 197 168
0.786770 0.837546 3.006531 186 193 190
2.857894 0.320719 3.527614 95 72 140
2.865093 0.298719 3.550888 94 73 142
2.841688 0.298528 3.552474 112 81 160
2.679449 0.291431 3.575863 96 66 149
2.664417 0.283017 3.577561 101 71 154
2.616258 0.258109 3.606212 124 96 162
2.679099 0.235733 3.625263 104 80 138
2.531370 0.230722 3.642042 205 207 215
2.597169 0.216757 3.657869 110 77 152
2.416728 0.213718 3.658258 122 84 156
2.548201 0.161429 3.706758 179 174 189
2.506750 0.150920 3.721283 107 72 146
2.322960 0.090451 3.771154 129 124 145
-0.624781 0.395207 3.418111 31 93 157
2.576807 -0.368208 4.204094 87 62 130
2.774420 -0.444394 4.257061 117 89 158
1.579691 -0.381426 4.235548 27 104 143
0.727945 -0.359809 4.196712 143 114 70
1.128964 -0.616532 4.449145 20 68 56
0.712997 -0.634948 4.455838 145 123 88
0.960597 -0.692979 4.520995 23 70 68
0.745046 -0.739456 4.564324 21 25 137
0.798162 -0.761493 4.588306 26 15 137
0.848299 -0.824886 4.654819 18 27 125
0.653963 -0.850811 4.678985 13 24 122
0.708090 -0.869102 4.699592 14 29 131
1.009454 -0.952125 4.792221 37 84 76
0.885159 -0.994941 4.827255 101 66 133
0.865579 -1.012571 4.843784 79 45 122
0.840080 -1.011057 4.840796 74 47 113
0.851436 -1.086498 4.918901 64 36 102
0.824696 -1.083137 4.916247 80 57 111
0.808595 -1.087236 4.917373 93 66 129
0.778987 -1.089755 4.922172 95 65 130
0.879224 -1.122676 4.958695 72 45 118
2.737903 2.919748 0.920950 168 164 176
0.230276 2.860942 0.979649 40 84 107
2.324368 2.190624 1.700393 165 171 178
0.930608 2.366204 1.478367 27 41 64
-2.876404 2.975446 0.852607 71 47 95
0.189893 2.191917 1.646178 49 129 86
-0.271986 2.113531 1.713339 49 126 88
1.178851 1.393423 2.438593 45 63 64
0.881170 1.001063 2.829985 155 192 190
0.825968 0.866248 2.956397 12 40 41
1.811594 0.300172 3.563266 171 185 179
0.865090 -0.433034 4.256000 153 155 149
0.665431 -0.551977 4.379867 174 143 74
1.269900 -0.641376 4.484796 140 103 83
0.653132 -0.591551 4.415769 144 120 60
0.810643 -0.640035 4.468730 158 125 69
1.500351 -0.779252 4.629164 120 89 64
0.902867 -0.750757 4.575863 21 71 71
0.570550 -0.730653 4.558986 168 133 69
0.797904 -0.999080 4.838744 168 162 187
2.293085 2.916242 0.941067 27 28 38
1.366616 2.731950 1.121899 137 103 168
1.744621 2.322162 1.532957 170 172 182
-0.210579 2.278970 1.523153 156 175 166
1.040070 1.931960 1.929420 53 71 70
-0.248747 2.046525 1.778955 50 65 68
-0.413972 2.005735 1.814594 168 176 175
2.696861 1.390116 2.448617 44 51 71
0.918926 1.102207 2.726435 125 162 158
0.901974 0.983770 2.822650 16 60 54
0.679903 0.888145 2.919909 158 175 172
0.726194 0.855919 2.948853 18 42 32
2.726642 0.294235 3.566602 154 158 163
2.442415 0.217785 3.664597 166 169 173
2.466100 0.192624 3.670185 175 174 183
2.305542 0.038038 3.813784 14 17 32
2.740821 -0.371681 4.202036 173 173 185
-0.349388 -0.149188 3.975909 170 139 194
1.224181 -0.449450 4.279910 20 76 77
1.265680 -0.459626 4.305768 162 173 170
0.587099 -0.430806 4.246800 145 115 60
1.782200 -0.626928 4.470271 19 62 47
1.192206 -0.585008 4.429854 29 76 60
0.848973 -0.579585 4.403785 167 135 70
1.809622 -0.687218 4.543953 25 69 52
0.651060 -0.636781 4.457376 169 134 66
1.798641 -0.759355 4.619268 18 67 47
0.804353 -0.704917 4.534806 151 120 59
0.960635 -0.777259 4.610757 14 67 53
0.991268 -0.954549 4.796454 148 162 156
0.858073 -1.006756 4.833005 194 199 202
-2.930985 2.972082 0.861737 63 56 91
0.991423 -0.618748 4.467468 22 74 64
2.326097 2.891666 0.984394 27 28 38
1.952088 2.335166 1.515551 165 166 170
-1.510373 2.879043 1.013713 76 106 123
-2.296953 2.073745 1.777897 157 174 165
-1.473042 1.755366 2.065984 140 114 127
0.952777 0.951560 2.870821 106 132 132
0.913643 0.969042 2.869373 129 170 165
0.984635 0.929405 2.890550 132 174 167
1.577219 0.396374 3.443682 163 173 167
-2.078586 0.672256 3.137236 47 54 69
1.131494 0.072367 3.745616 59 137 96
-0.926375 0.232607 3.607346 28 114 160
-0.668144 0.007308 3.820499 165 175 182
-0.577035 -0.130180 3.963529 161 173 175
0.676735 -0.451472 4.257545 173 135 71
1.090883 -0.529103 4.354038 160 166 161
1.256801 -0.651868 4.506394 165 166 162
0.647833 -0.658823 4.483093 172 175 166
0.751565 -0.687041 4.509742 149 121 61
0.344864 -0.669117 4.486721 155 161 156
0.795167 -0.996461 4.829340 86 51 137
2.390608 1.789783 2.091799 162 168 167
0.772159 0.850467 2.937970 125 169 162
0.542217 -0.504851 4.314685 52 132 169
0.410190 -0.651485 4.474175 173 179 174
0.907435 0.956036 2.873386 127 174 166
0.929892 -0.899366 4.723722 30 82 75
-1.159105 0.609282 3.192126 174 180 179
0.861375 -0.584123 3.873657 234 222 220
0.765468 -0.359011 4.175726 167 170 168
-0.668365 -0.238499 4.038234 11 113 165
0.903252 -0.480368 4.287973 160 165 163
1.187449 -0.484736 4.368137 30 81 67
1.047430 -0.566189 4.394580 24 77 74
1.085640 -0.559834 4.444561 23 75 65
2.352997 0.067797 3.800720 20 22 33
-0.754176 2.642306 1.244932 40 62 80
0.681216 1.892361 1.952720 33 45 63
0.747265 1.839105 2.002226 41 63 68
0.367403 1.914393 1.942514 39 48 52
3.322600 1.126396 2.689656 42 47 46
1.099471 1.438106 2.398698 39 44 47
1.278551 1.336582 2.492317 55 64 68
1.421781 1.223569 2.601362 144 168 168
3.106959 0.870363 2.947810 52 54 54
1.678963 1.112436 2.707575 43 45 55
1.078730 1.223561 2.613366 30 47 50
1.117244 1.207506 2.626070 36 63 67
1.085295 1.196265 2.634235 35 59 59
3.292570 0.647262 3.195743 31 33 33
-0.594230 1.379503 2.519606 37 54 40
1.058588 0.892766 2.938830 53 59 70
2.418963 0.073290 3.766623 158 136 178
1.473009 -0.382538 4.221071 110 84 132
1.459197 -0.378273 4.220958 105 87 124
1.339785 -0.376811 4.215100 101 91 121
1.278646 -0.379357 4.212133 132 115 149
2.311264 2.810090 0.984550 24 25 29
-1.490117 3.616419 0.281577 164 161 170
-1.082677 3.300040 0.601827 117 57 151
2.018618 2.287595 1.522379 157 152 173
0.981418 2.283395 1.540563 63 105 150
3.437577 1.484262 2.326653 57 63 70
3.368392 1.478983 2.324997 48 50 50
3.611228 1.432736 2.374174 40 43 51
3.514796 1.447072 2.356512 166 169 173
3.447303 1.468530 2.341369 167 171 172
3.598496 1.442035 2.377101 155 158 162
3.739062 1.383150 2.429296 41 43 54
0.867471 1.975530 1.864214 136 175 173
3.500648 1.388164 2.422994 40 45 44
3.819278 1.320343 2.505224 41 46 45
0.666940 1.940413 1.912163 42 47 50
0.656188 1.921376 1.933997 64 73 83
2.913719 1.381114 2.421549 35 40 39
0.759014 1.855327 1.988754 35 57 62
0.485430 1.929494 1.934857 141 181 179
0.397824 1.917301 1.931204 35 40 49
0.417537 1.923721 1.940119 123 161 161
0.384829 1.897981 1.950316 126 170 164
1.054160 1.732187 2.091069 20 55 45
-0.288009 2.084805 1.812940 35 52 55
-0.397934 2.095276 1.795187 52 57 58
3.653702 1.180164 2.631091 35 39 44
0.303353 1.895483 1.966084 45 52 55
0.810907 1.746695 2.076029 18 41 43
0.777544 1.756505 2.076129 20 53 49
3.633829 1.184473 2.642810 36 38 48
3.020918 1.246232 2.577323 44 46 56
3.072683 1.240644 2.589920 43 46 51
3.217681 1.129327 2.694060 58 63 62
-0.329692 1.852727 2.036345 49 53 54
2.720410 1.132886 2.677731 166 171 170
2.735470 1.129506 2.683907 27 32 31
3.586843 0.961067 2.866729 38 44 49
3.018865 1.029682 2.779263 55 55 67
1.115158 1.423024 2.406496 53 55 63
1.211950 1.391163 2.441608 186 191 190
0.220258 1.624655 2.250584 139 176 174
1.000835 1.409569 2.415437 131 173 166
1.248346 1.327756 2.486072 49 53 58
0.888403 1.385096 2.450375 127 170 167
1.407535 1.259569 2.560023 178 180 180
1.408043 1.240284 2.579983 46 52 59
3.181531 0.889300 2.936407 170 173 171
1.455368 1.224213 2.596408 176 182 181
2.943641 0.908562 2.917356 48 53 52
3.111615 0.854141 2.961071 178 180 181
1.718936 1.127108 2.694842 162 167 166
3.862869 0.714151 3.131127 58 61 69
1.492913 1.159565 2.661888 38 47 50
1.699906 1.094084 2.720617 162 167 165
1.102326 1.240014 2.596524 17 48 49
1.090927 1.213392 2.617457 126 160 159
1.067902 1.205602 2.628953 48 64 76
2.012980 0.959899 2.851742 85 111 125
3.590080 0.679711 3.166550 44 47 45
1.019775 1.184926 2.654886 36 51 60
1.597171 1.027225 2.782441 54 49 64
1.563885 1.027279 2.780576 45 42 58
1.005942 1.170375 2.670763 125 166 161
3.121920 0.729974 3.106349 168 171 179
3.085343 0.728467 3.101228 172 174 174
0.956698 1.143184 2.681181 34 54 59
0.888739 1.117430 2.718336 48 57 71
3.294545 0.634715 3.206960 175 177 177
3.242283 0.625800 3.211904 56 60 65
0.926482 1.072146 2.769035 28 50 56
0.937580 1.034960 2.797108 118 157 149
0.921367 1.035995 2.807164 27 46 49
0.965777 1.016066 2.821098 34 58 58
0.916412 1.006999 2.825611 54 127 95
0.898871 1.010010 2.825837 14 44 45
-0.814523 1.443867 2.472882 55 67 55
0.883558 1.006195 2.830406 130 170 168
-0.828385 1.434085 2.481579 177 182 180
0.928448 0.985334 2.855744 28 50 55
0.910950 0.985628 2.853840 135 176 169
-0.679008 1.369214 2.535879 166 168 186
0.928113 0.960648 2.872553 135 170 166
-0.746206 1.378848 2.541410 175 185 173
-0.609333 1.311391 2.595396 40 48 141
0.968276 0.901084 2.926546 41 55 67
0.982964 0.898426 2.942660 42 55 63
0.851275 0.887079 2.959869 43 67 65
0.757257 0.866891 2.971686 28 43 46
0.741552 0.882496 2.971011 70 139 96
0.783180 0.853116 2.986753 74 138 108
0.658245 0.856678 2.989187 49 56 65
-0.518614 1.166593 2.751096 96 109 188
0.720313 0.850455 3.014781 170 175 174
3.117445 0.236388 3.608252 160 131 181
3.104509 0.240757 3.612949 32 17 48
-0.574006 1.029240 2.876916 55 43 155
2.490848 0.316483 3.515868 152 166 184
-0.545990 1.013673 2.895762 86 136 189
2.996717 0.189861 3.650804 20 18 38
3.020736 0.187853 3.657114 32 27 48
2.633939 0.241240 3.601758 107 77 148
-0.594114 0.961166 2.946293 34 15 148
-0.989832 1.020739 2.884494 62 50 150
2.536818 0.232047 3.615013 104 75 144
-0.889375 0.979393 2.941541 83 96 175
2.412374 0.176056 3.678597 121 95 143
2.463177 0.140232 3.702703 109 80 153
2.983946 -0.009767 3.862361 143 121 170
2.409567 0.095986 3.749251 163 136 186
2.373673 0.074643 3.759809 36 24 54
3.015579 -0.042969 3.898898 31 23 60
2.272736 0.060675 3.772555 34 21 53
2.294094 0.055440 3.777500 130 120 150
-0.491521 0.661060 3.229727 184 161 199
2.284571 0.017652 3.815884 29 20 47
2.313618 0.011736 3.830729 30 25 46
2.293976 0.010163 3.830131 140 117 162
-0.345366 0.531151 3.353919 143 85 174
-0.383702 0.518078 3.363917 51 96 63
1.287314 -0.452960 4.292119 28 71 56
1.294669 -0.478917 4.315943 39 81 63
1.358418 -0.491510 4.340928 54 85 82
1.366836 -0.515148 4.355364 40 77 57
1.772374 -0.602138 4.447915 46 74 55
1.195322 -0.514144 4.351248 34 72 54
1.262310 -0.530105 4.367434 30 74 51
1.157324 -0.520807 4.355459 23 70 62
1.320701 -0.566982 4.395678 36 75 59
1.686496 -0.639952 4.480955 27 69 58
1.701599 -0.647895 4.490920 138 169 162
1.719425 -0.659890 4.501638 28 70 63
1.208927 -0.565490 4.395689 37 78 57
0.822315 -0.479004 4.319354 170 133 75
1.726910 -0.682731 4.525174 31 75 69
1.575353 -0.743433 4.580088 36 73 63
1.166097 -0.682056 4.522634 36 72 58
1.209628 -0.702935 4.541070 139 103 85
0.270932 -0.733046 4.288555 194 181 179
1.173517 -0.710060 4.544157 39 77 55
0.955489 -0.667835 4.499578 33 77 71
0.759580 -0.741987 4.570344 18 36 129
0.713737 -0.741937 4.563080 25 57 128
0.748431 -0.845014 4.665729 13 48 122
0.733433 -0.843363 4.662941 28 58 129
-0.963168 3.661944 0.228238 32 21 47
-1.172210 3.664256 0.226829 48 46 58
2.088609 2.740798 1.047967 25 26 36
2.131116 2.693331 1.083468 34 36 44
2.115655 2.733089 1.078168 157 160 168
5.165278 2.017045 1.772429 151 154 145
2.295635 2.485849 1.287882 154 165 173
2.088828 2.526404 1.275478 168 166 178
2.080315 2.488288 1.318747 159 156 172
5.033705 1.867824 1.915719 55 43 133
1.685696 2.324685 1.486668 164 155 182
1.589317 2.307315 1.493630 166 168 186
-1.408752 2.934891 0.977231 75 102 116
0.845831 2.338788 1.489368 179 188 197
2.204819 2.056381 1.757357 160 158 178
0.978689 2.278497 1.540727 70 112 157
0.839996 2.286558 1.530252 64 104 146
-1.593952 2.869784 1.055880 83 108 118
-1.622198 2.815784 1.091981 66 93 103
0.122665 2.258010 1.617633 164 185 170
3.444922 1.493639 2.320592 61 68 77
3.515597 1.444116 2.358573 162 165 169
3.455471 1.480140 2.341245 164 168 169
3.799744 1.418822 2.425076 160 165 164
2.044449 1.706388 2.096698 102 79 154
0.719648 1.979743 1.860735 47 55 55
1.042420 1.882115 1.943322 35 50 53
1.135593 1.851289 1.970620 56 66 73
0.690597 1.953786 1.887771 54 57 61
3.689818 1.362599 2.480482 49 51 59
1.853918 1.649467 2.173060 98 76 155
0.816262 1.859446 1.973100 21 51 52
3.656738 1.304062 2.537096 133 135 146
0.710346 1.907789 1.956059 40 54 66
0.567999 1.921107 1.930938 36 49 51
0.451139 1.927265 1.938667 138 182 176
2.881506 1.466637 2.419081 50 53 61
0.979064 1.766096 2.064708 32 47 49
1.052372 1.726441 2.091297 21 52 43
0.842086 1.727042 2.076178 48 75 71
-0.293726 2.057872 1.843602 64 72 79
3.420344 1.217682 2.609953 165 169 174
3.594196 1.162856 2.651015 48 50 61
2.817797 1.290927 2.518110 170 172 172
3.082961 1.225002 2.586559 168 173 172
3.022064 1.249691 2.577703 44 46 56
3.391706 1.184737 2.668263 164 169 168
3.217019 1.128789 2.693816 58 63 62
3.661545 0.969500 2.818519 38 43 42
-0.041562 1.790210 2.083624 50 62 66
1.139934 1.510379 2.326906 34 44 51
3.622341 0.945825 2.875487 169 171 171
3.634677 0.936604 2.896165 53 57 58
2.985253 1.022877 2.781914 52 54 65
2.969662 1.027739 2.792247 169 172 176
1.047562 1.418036 2.413612 43 59 65
3.514429 0.935906 2.904993 157 161 162
1.153653 1.388449 2.445078 127 166 164
3.546320 0.913978 2.926450 163 168 171
1.408911 1.260966 2.558860 180 182 182
1.374917 1.257689 2.559242 49 58 67
1.355000 1.273183 2.559121 122 165 162
1.702874 1.157868 2.656247 170 174 175
1.685079 1.167362 2.662014 45 48 56
3.443799 0.802849 3.016960 41 48 63
1.650888 1.162550 2.661163 163 167 168
3.242531 0.822735 2.992735 149 152 150
3.271598 0.824120 3.002300 176 176 176
3.442922 0.771730 3.041330 49 53 64
2.262875 1.008738 2.810495 167 173 178
2.152967 1.036995 2.791139 163 180 183
1.475585 1.168767 2.659515 133 177 171
1.684388 1.102784 2.708420 75 80 89
2.216255 0.987395 2.822470 80 108 119
1.701415 1.090520 2.721635 166 171 169
-1.218229 1.792420 2.140405 125 99 112
3.119444 0.785705 3.037141 44 47 62
2.025820 0.986501 2.827304 161 179 180
2.052654 0.952278 2.871363 73 99 111
2.111188 0.928759 2.892191 171 176 177
3.087866 0.759132 3.112135 66 69 77
0.920681 1.032809 2.806917 25 44 47
0.966463 1.013567 2.822388 29 53 51
-0.811994 1.439282 2.471372 54 65 55
-0.625515 1.392796 2.520639 35 60 40
-0.828930 1.424835 2.483404 175 180 178
-0.848905 1.395648 2.504412 65 71 66
0.973456 0.943356 2.887637 121 165 158
-0.745654 1.384234 2.540483 177 187 175
-0.606868 1.302833 2.592757 45 51 146
0.967533 0.901333 2.930882 51 63 75
-0.774875 1.340250 2.573495 153 171 158
-0.517424 1.221970 2.680116 39 7 148
-0.553274 1.227377 2.680458 48 26 145
-0.614639 1.197210 2.706905 42 53 137
0.787485 0.837828 3.011141 179 180 178
0.701212 0.875078 3.004030 30 55 51
-0.864264 1.218958 2.694435 56 47 151
-0.618777 1.148917 2.766960 151 167 179
2.992640 0.228249 3.609559 36 20 54
2.490408 0.318666 3.515973 151 164 178
-0.967667 1.072080 2.834946 42 124 101
2.701039 0.241435 3.591414 113 80 154
2.610769 0.255172 3.579743 167 166 182
2.564086 0.254467 3.585646 111 75 159
-0.661766 0.973831 2.946499 43 20 152
-0.989362 1.015030 2.886974 63 52 162
2.481523 0.184753 3.651389 123 87 157
2.506952 0.183210 3.663641 123 108 152
1.653313 0.337669 3.497959 144 171 151
-1.001856 0.947171 2.960558 48 15 149
3.025371 -0.000802 3.866786 47 25 67
3.069841 -0.020747 3.890268 41 24 67
3.022910 -0.023510 3.884450 153 130 182
3.031620 -0.037716 3.890281 43 21 69
2.996946 -0.067414 3.916151 21 20 40
-0.485626 0.676596 3.209916 133 65 166
-0.521235 0.679276 3.213084 140 79 170
2.262645 0.034857 3.805021 133 110 154
2.282466 0.015175 3.814876 27 17 47
2.334681 -0.007647 3.845658 158 135 179
-0.534717 0.597540 3.292948 123 72 152
3.107780 -0.200233 4.064607 132 109 184
-0.383760 0.511868 3.364760 43 95 58
1.425894 -0.342206 4.175449 150 134 165
1.629837 -0.430529 4.270894 49 111 159
1.637614 -0.479439 4.319844 38 106 149
1.585627 -0.485040 4.332776 43 119 155
1.246051 -0.430877 4.271435 35 69 68
1.287498 -0.445850 4.294192 36 75 60
1.221056 -0.443000 4.280725 32 80 84
1.709316 -0.560360 4.401512 159 170 167
0.727662 -0.356258 4.202046 159 124 60
1.358905 -0.497564 4.340401 50 89 81
1.449304 -0.527386 4.367207 32 114 161
1.366490 -0.512362 4.356069 40 77 57
1.282875 -0.510459 4.349801 159 168 155
1.096578 -0.492229 4.319896 31 79 73
1.350096 -0.545416 4.383518 31 77 58
1.194766 -0.513880 4.351116 34 72 54
1.260716 -0.532047 4.367223 24 72 48
1.300635 -0.563189 4.372823 156 168 168
1.158516 -0.521201 4.355139 21 65 59
1.109522 -0.513946 4.344906 158 172 166
1.321036 -0.564067 4.395895 34 76 59
1.205196 -0.538408 4.373230 32 74 56
1.686491 -0.641427 4.479837 29 71 60
1.162036 -0.522245 4.370683 141 168 165
1.701000 -0.649360 4.491427 147 173 167
0.823530 -0.480695 4.318990 168 131 71
1.533467 -0.639429 4.475256 1 46 37
1.727764 -0.682211 4.524834 23 67 61
1.404739 -0.621858 4.469205 136 102 96
1.730071 -0.706078 4.549321 17 62 59
1.126193 -0.594971 4.417504 156 170 166
1.057593 -0.584281 4.417842 29 80 73
1.720210 -0.722976 4.565583 129 155 162
1.162355 -0.611409 4.446148 31 76 60
1.372256 -0.656606 4.497316 138 100 82
1.079437 -0.600233 4.436419 33 80 71
1.379155 -0.680790 4.519237 154 109 95
1.290243 -0.674792 4.504422 129 93 63
1.479905 -0.698206 4.563458 141 102 74
1.575164 -0.741366 4.581422 29 69 58
1.297694 -0.692269 4.529650 122 87 61
1.145592 -0.684441 4.512578 38 69 62
0.960196 -0.647292 4.476594 34 79 82
1.081478 -0.669691 4.505954 143 154 146
1.216169 -0.725796 4.563873 136 95 80
1.156101 -0.733955 4.561250 46 88 65
0.962369 -0.686846 4.522786 28 74 68
0.950004 -0.704589 4.528405 153 167 165
0.545722 -0.610911 4.443625 154 127 76
1.132104 -0.751914 4.582786 158 172 161
0.911131 -0.730655 4.554946 33 81 85
0.995895 -0.778523 4.605384 28 74 61
0.913475 -0.768307 4.598047 31 79 81
0.961196 -0.783389 4.610048 28 76 64
0.914551 -0.791409 4.602756 149 176 173
0.370999 -0.680682 4.498770 156 126 77
1.060150 -0.845073 4.677004 24 68 62
-0.921931 3.368482 0.516545 106 53 140
-1.050787 3.342454 0.572721 129 64 163
3.871548 2.183129 1.584517 96 109 161
-1.472400 3.383707 0.527614 154 137 94
0.264962 2.841940 1.023587 34 45 72
2.070927 2.405096 1.406786 149 148 164
4.819074 1.783365 2.030885 49 122 100
2.009106 2.294292 1.521824 173 179 184
1.596206 2.302782 1.497160 170 172 183
1.809088 2.267337 1.539439 161 161 173
-0.684663 2.807511 1.085024 164 168 169
2.313329 2.099132 1.719138 156 165 162
0.910733 2.300041 1.509339 37 39 57
2.188234 2.017237 1.776927 162 164 174
0.970670 2.300475 1.534021 71 109 157
-0.672736 2.687122 1.207350 151 156 157
1.730484 2.013814 1.799158 162 164 174
3.685990 1.592210 2.244276 44 46 54
0.116853 2.248269 1.618454 169 176 171
3.431822 1.525397 2.296341 166 171 170
3.806983 1.415505 2.422271 156 161 160
-0.347634 2.252587 1.627506 167 177 171
0.923818 1.905203 1.932583 48 63 59
-0.285261 2.200053 1.687948 50 125 81
3.676721 1.350325 2.482027 42 44 54
0.755092 1.850667 1.990144 81 106 110
-0.407422 2.086555 1.772755 113 117 118
-0.305831 2.094409 1.793746 163 197 191
2.843329 1.397849 2.430439 43 49 62
1.039297 1.765664 2.078071 61 78 75
2.868690 1.383151 2.448213 40 44 55
0.864056 1.803806 2.055052 24 52 52
0.321457 1.894095 1.958045 87 89 90
0.742983 1.756838 2.081869 28 68 66
2.807051 1.258039 2.514668 167 169 169
3.309785 1.238823 2.603666 55 55 61
-0.258512 2.000134 1.890580 188 194 193
-1.513883 2.250962 1.666386 125 101 155
2.770720 1.209577 2.603338 180 182 182
3.663982 0.931725 2.915855 37 40 44
1.080909 1.430289 2.414580 131 172 165
3.407003 0.914750 2.915271 46 51 50
3.882229 0.775960 3.054736 46 49 57
2.892323 0.928762 2.896016 56 61 60
2.155377 1.043397 2.795897 167 177 177
1.656981 1.114604 2.708395 181 186 185
3.607920 0.719372 3.141212 186 188 188
2.107410 0.921182 2.888563 179 185 184
3.296089 0.643633 3.172645 159 161 161
-1.194917 1.547153 2.366067 144 107 127
-0.627959 1.419805 2.518845 46 71 51
-0.579922 1.350190 2.540024 160 172 174
0.979841 0.941434 2.889349 126 173 165
-0.610444 1.328959 2.589076 48 53 146
0.969294 0.901037 2.934983 59 68 81
-0.810857 1.355849 2.570142 159 174 166
-0.552278 1.214500 2.684620 33 13 142
-0.833578 1.232879 2.673224 36 14 140
-0.864548 1.239514 2.680825 60 56 151
-0.957574 1.109226 2.814432 143 166 161
3.003031 0.198203 3.642908 37 36 52
-0.967475 1.046343 2.835316 34 127 96
-0.925401 1.042762 2.866715 50 41 158
-0.589919 0.948852 2.956666 29 14 149
2.397198 0.040514 3.800768 33 25 48
2.423858 -0.430563 4.273149 102 66 150
1.480379 -0.370897 4.222013 157 133 175
1.631046 -0.429748 4.272314 46 109 159
1.631112 -0.462716 4.293297 43 110 155
1.539951 -0.453484 4.291244 163 177 183
1.459640 -0.440158 4.278716 49 117 160
1.639158 -0.480108 4.319855 39 107 152
1.507813 -0.453740 4.292014 38 107 157
1.584163 -0.489834 4.328019 49 122 160
1.241674 -0.435994 4.271942 29 72 69
1.510586 -0.499717 4.335779 31 109 156
1.286342 -0.448203 4.289693 50 86 72
1.293057 -0.475333 4.314812 31 76 59
1.693000 -0.564945 4.409185 27 67 56
1.449622 -0.529090 4.363385 34 114 161
1.334470 -0.523685 4.367426 166 174 174
1.160307 -0.482511 4.332658 36 80 67
1.097167 -0.492304 4.320194 31 79 73
1.564926 -0.580381 4.425580 26 69 66
1.350719 -0.538557 4.382286 27 76 56
1.193002 -0.514167 4.351190 31 75 58
1.249890 -0.538418 4.366949 29 73 66
1.688417 -0.637579 4.479475 30 72 61
1.204505 -0.537417 4.373757 32 74 56
1.158210 -0.533563 4.370028 157 173 172
1.089266 -0.514319 4.356104 157 168 160
1.722344 -0.669484 4.497153 15 57 50
1.078894 -0.535628 4.368257 160 163 161
1.166563 -0.555938 4.390651 150 163 165
0.826134 -0.486486 4.317364 174 139 76
1.713469 -0.672202 4.515501 150 163 161
1.527968 -0.636873 4.480107 22 69 61
1.725952 -0.696332 4.519448 17 62 59
1.542928 -0.660200 4.495438 26 71 62
1.158062 -0.579288 4.414613 158 163 166
1.046009 -0.566556 4.391595 28 78 76
1.446007 -0.641694 4.486863 137 105 76
1.456547 -0.673326 4.508646 153 112 89
1.162259 -0.602300 4.448805 29 76 60
1.084140 -0.592660 4.437267 26 73 64
1.128237 -0.610623 4.448638 27 76 62
1.465693 -0.694840 4.531671 145 104 79
1.379385 -0.685771 4.515909 150 104 86
1.290145 -0.669123 4.505787 133 96 68
1.475013 -0.713788 4.556231 138 99 71
1.603749 -0.741210 4.587324 22 65 52
0.663447 -0.555654 4.382555 174 135 73
1.022110 -0.630144 4.466311 36 79 64
1.296748 -0.691830 4.529379 125 89 65
0.637456 -0.573630 4.395424 180 179 169
1.552234 -0.734841 4.601624 30 76 70
1.164686 -0.680549 4.524644 27 68 53
1.213177 -0.701776 4.539730 140 104 80
1.417902 -0.772223 4.609842 146 109 83
1.223818 -0.750972 4.584011 139 102 76
0.836625 -0.676103 4.504715 169 136 67
0.806188 -0.691265 4.517959 178 179 169
1.351612 -0.809308 4.641591 150 107 90
1.128543 -0.783247 4.623056 18 61 46
1.044271 -0.804108 4.630054 21 66 63
1.057706 -0.818885 4.654581 13 60 52
0.539192 -0.738024 4.565700 169 135 69
0.744250 -0.804816 4.631310 153 169 181
3.616890 1.429130 2.374235 32 35 43
3.657787 1.406975 2.393504 52 58 71
3.462723 1.193142 2.626475 55 59 70
3.060775 1.238649 2.590090 61 65 70
2.858869 1.074554 2.735126 52 58 71
3.005211 0.633500 3.194677 44 51 66
1.216507 -0.670232 4.485951 141 100 85
4.679290 2.140832 1.606742 134 86 112
2.061274 2.403523 1.407726 158 161 169
1.998307 2.374092 1.417312 155 161 168
1.856608 2.391916 1.416594 165 167 178
1.745671 2.390757 1.402964 101 67 161
1.508570 2.336966 1.452313 165 170 173
1.607493 2.308146 1.495887 162 165 173
1.798210 2.260350 1.541337 163 166 171
0.913783 2.322315 1.500803 33 35 53
1.857415 1.985271 1.819690 159 165 170
-0.915246 2.542224 1.354035 46 52 93
0.191052 2.232250 1.613843 47 126 82
3.455057 1.490270 2.306934 52 54 72
0.787910 1.963427 1.838549 46 58 60
3.285525 1.506515 2.322024 38 40 40
-0.354524 2.250816 1.628566 164 173 170
3.698733 1.315206 2.469749 168 173 172
3.100369 1.453310 2.349522 40 42 42
0.877480 1.933477 1.909122 124 171 163
4.184947 1.299584 2.567106 127 93 154
0.924271 1.778776 2.053997 32 50 51
0.809727 1.695839 2.077231 30 54 54
2.990801 1.257813 2.544681 170 175 174
3.498450 1.152059 2.648737 51 57 70
3.709304 1.171616 2.685200 142 119 164
3.003932 1.254276 2.576955 44 48 49
2.610589 1.268514 2.517846 51 58 77
-0.244393 1.903707 1.966563 52 52 64
2.840373 1.143549 2.629845 63 67 85
2.766940 1.200961 2.605136 181 183 183
-0.057994 1.802978 2.077594 95 102 105
2.678936 1.161792 2.641360 57 63 74
1.088681 1.438353 2.386820 48 56 63
-0.814679 1.925755 2.026017 175 175 175
3.681517 0.880587 2.963175 33 37 48
1.278658 1.336828 2.495611 60 66 71
1.294718 1.306180 2.509282 50 57 66
3.718790 0.833991 3.017336 60 62 72
1.418384 1.229421 2.587383 51 61 61
1.470476 1.206529 2.624962 65 73 73
1.687730 1.114291 2.694232 54 60 71
2.154660 1.045132 2.800689 165 171 170
2.265359 0.963343 2.839912 101 133 152
-1.468296 1.859155 2.073192 169 174 173
3.548719 0.751654 3.094335 167 172 171
1.979726 1.014136 2.802215 87 113 130
-1.550633 1.852289 2.078681 135 96 117
1.996274 0.993544 2.814797 89 117 134
3.116705 0.754982 3.085680 172 174 174
2.098616 0.849238 2.924020 72 103 124
-1.197628 1.568614 2.361529 141 104 124
-0.784706 1.435437 2.464586 64 87 59
-0.663718 1.412722 2.504551 51 71 48
-0.608928 1.340218 2.581921 58 70 152
-0.607042 1.229978 2.647114 170 180 180
1.308289 0.630430 3.229784 58 123 77
3.005712 0.187309 3.639530 25 25 41
-0.950333 1.108975 2.825795 156 168 170
